1.23442 935.136 935.136 2 1 0
1.23443 934.892 934.892 2 1 0
1.23443 934.648 934.648 2 1 0
1.23444 934.403 934.403 2 1 0
1.23445 934.159 934.159 2 1 0
1.23445 933.915 933.915 2 1 0
1.23446 933.671 933.671 2 1 0
1.23447 933.427 933.427 2 1 0
1.23448 933.183 933.183 2 1 0
1.23449 932.939 932.939 2 1 0
1.23449 932.695 932.695 2 1 0
1.2345 932.451 932.451 2 1 0
1.23451 932.207 932.207 2 1 0
1.23452 931.963 931.963 2 1 0
1.23453 931.719 931.719 2 1 0
1.23454 931.475 931.475 2 1 0
1.23455 931.232 931.232 2 1 0
1.23456 930.988 930.988 2 1 0
1.23457 930.744 930.744 2 1 0
1.23458 930.501 930.501 2 1 0
1.23459 930.257 930.257 2 1 0
1.2346 930.014 930.014 2 1 0
1.23461 929.77 929.77 2 1 0
1.23462 929.527 929.527 2 1 0
1.23463 929.283 929.283 2 1 0
1.23464 929.04 929.04 2 1 0
1.23466 928.797 928.797 2 1 0
1.23467 928.553 928.553 2 1 0
1.23468 928.31 928.31 2 1 0
1.23469 928.067 928.067 2 1 0
1.2347 927.824 927.824 2 1 0
1.23472 927.581 927.581 2 1 0
1.23473 927.338 927.338 2 1 0
1.23474 927.095 927.095 2 1 0
1.23476 926.852 926.852 2 1 0
1.23477 926.609 926.609 2 1 0
1.23478 926.366 926.366 2 1 0
1.2348 926.123 926.123 2 1 0
1.23481 925.88 925.88 2 1 0
1.23483 925.637 925.637 2 1 0
1.23484 925.395 925.395 2 1 0
1.23486 925.152 925.152 2 1 0
1.23487 924.909 924.909 2 1 0
1.23489 924.667 924.667 2 1 0
1.2349 924.424 924.424 2 1 0
1.23492 924.182 924.182 2 1 0
1.23493 923.939 923.939 2 1 0
1.23495 923.697 923.697 2 1 0
1.23497 923.454 923.454 2 1 0
1.23498 923.212 923.212 2 1 0
1.235 922.969 922.969 2 1 0
1.23502 922.727 922.727 2 1 0
1.23503 922.485 922.485 2 1 0
1.23505 922.243 922.243 2 1 0
1.23507 922 922 2 1 0
1.23509 921.758 921.758 2 1 0
1.2351 921.516 921.516 2 1 0
1.23512 921.274 921.274 2 1 0
1.23514 921.032 921.032 2 1 0
1.23516 920.79 920.79 2 1 0
1.23518 920.548 920.548 2 1 0
1.2352 920.306 920.306 2 1 0
1.23522 920.064 920.064 2 1 0
1.23524 919.822 919.822 2 1 0
1.23526 919.581 919.581 2 1 0
1.23528 919.339 919.339 2 1 0
1.2353 919.097 919.097 2 1 0
1.23532 918.855 918.855 2 1 0
1.23534 918.614 918.614 2 1 0
1.23536 918.372 918.372 2 1 0
1.23538 918.131 918.131 2 1 0
1.2354 917.889 917.889 2 1 0
1.23542 917.648 917.648 2 1 0
1.23545 917.406 917.406 2 1 0
1.23547 917.165 917.165 2 1 0
1.23549 916.923 916.923 2 1 0
1.23551 916.682 916.682 2 1 0
1.23554 916.441 916.441 2 1 0
1.23556 916.2 916.2 2 1 0
1.23558 915.958 915.958 2 1 0
1.2356 915.717 915.717 2 1 0
1.23563 915.476 915.476 2 1 0
1.23565 915.235 915.235 2 1 0
1.23568 914.994 914.994 2 1 0
1.2357 914.753 914.753 2 1 0
1.23572 914.512 914.512 2 1 0
1.23575 914.271 914.271 2 1 0
1.23577 914.03 914.03 2 1 0
1.2358 913.789 913.789 2 1 0
1.23582 913.548 913.548 2 1 0
1.23585 913.307 913.307 2 1 0
1.23588 913.067 913.067 2 1 0
1.2359 912.826 912.826 2 1 0
1.23593 912.585 912.585 2 1 0
1.23595 912.345 912.345 2 1 0
1.23598 912.104 912.104 2 1 0
1.23601 911.863 911.863 2 1 0
1.23604 911.623 911.623 2 1 0
1.23606 911.382 911.382 2 1 0
1.23609 911.142 911.142 2 1 0
1.23612 910.901 910.901 2 1 0
1.23615 910.661 910.661 2 1 0
1.23617 910.421 910.421 2 1 0
1.2362 910.18 910.18 2 1 0
1.23623 909.94 909.94 2 1 0
1.23626 909.7 909.7 2 1 0
1.23629 909.46 909.46 2 1 0
1.23632 909.219 909.219 2 1 0
1.23635 908.979 908.979 2 1 0
1.23638 908.739 908.739 2 1 0
1.23641 908.499 908.499 2 1 0
1.23644 908.259 908.259 2 1 0
1.23647 908.019 908.019 2 1 0
1.2365 907.779 907.779 2 1 0
1.23653 907.539 907.539 2 1 0
1.23656 907.299 907.299 2 1 0
1.23659 907.06 907.06 2 1 0
1.23663 906.82 906.82 2 1 0
1.23666 906.58 906.58 2 1 0
1.23669 906.34 906.34 2 1 0
1.23672 906.101 906.101 2 1 0
1.23676 905.861 905.861 2 1 0
1.23679 905.621 905.621 2 1 0
1.23682 905.382 905.382 2 1 0
1.23685 905.142 905.142 2 1 0
1.23689 904.903 904.903 2 1 0
1.23692 904.663 904.663 2 1 0
1.23696 904.424 904.424 2 1 0
1.23699 904.184 904.184 2 1 0
1.23702 903.945 903.945 2 1 0
1.23706 903.706 903.706 2 1 0
1.23709 903.466 903.466 2 1 0
1.23713 903.227 903.227 2 1 0
1.23716 902.988 902.988 2 1 0
1.2372 902.749 902.749 2 1 0
1.23724 902.51 902.51 2 1 0
1.23727 902.27 902.27 2 1 0
1.23731 902.031 902.031 2 1 0
1.23734 901.792 901.792 2 1 0
1.23738 901.553 901.553 2 1 0
1.23742 901.314 901.314 2 1 0
1.23746 901.075 901.075 2 1 0
1.23749 900.836 900.836 2 1 0
1.23753 900.598 900.598 2 1 0
1.23757 900.359 900.359 2 1 0
1.23761 900.12 900.12 2 1 0
1.23764 899.881 899.881 2 1 0
1.23768 899.642 899.642 2 1 0
1.23772 899.404 899.404 2 1 0
1.23776 899.165 899.165 2 1 0
1.2378 898.926 898.926 2 1 0
1.23784 898.688 898.688 2 1 0
1.23788 898.449 898.449 2 1 0
1.23792 898.211 898.211 2 1 0
1.23796 897.972 897.972 2 1 0
1.238 897.734 897.734 2 1 0
1.23804 897.495 897.495 2 1 0
1.23808 897.257 897.257 2 1 0
1.23812 897.019 897.019 2 1 0
1.23817 896.78 896.78 2 1 0
1.23821 896.542 896.542 2 1 0
1.23825 896.304 896.304 2 1 0
1.23829 896.066 896.066 2 1 0
1.23833 895.827 895.827 2 1 0
1.23838 895.589 895.589 2 1 0
1.23842 895.351 895.351 2 1 0
1.23846 895.113 895.113 2 1 0
1.23851 894.875 894.875 2 1 0
1.23855 894.637 894.637 2 1 0
1.23859 894.399 894.399 2 1 0
1.23864 894.161 894.161 2 1 0
1.23868 893.923 893.923 2 1 0
1.23873 893.685 893.685 2 1 0
1.23877 893.448 893.448 2 1 0
1.23882 893.21 893.21 2 1 0
1.23886 892.972 892.972 2 1 0
1.23891 892.734 892.734 2 1 0
1.23895 892.497 892.497 2 1 0
1.239 892.259 892.259 2 1 0
1.23905 892.021 892.021 2 1 0
1.23909 891.784 891.784 2 1 0
1.23914 891.546 891.546 2 1 0
1.23919 891.309 891.309 2 1 0
1.23923 891.071 891.071 2 1 0
1.23928 890.834 890.834 2 1 0
1.23933 890.596 890.596 2 1 0
1.23938 890.359 890.359 2 1 0
1.23942 890.121 890.121 2 1 0
1.23947 889.884 889.884 2 1 0
1.23952 889.647 889.647 2 1 0
1.23957 889.409 889.409 2 1 0
1.23962 889.172 889.172 2 1 0
1.23967 888.935 888.935 2 1 0
1.23972 888.698 888.698 2 1 0
1.23977 888.461 888.461 2 1 0
1.23982 888.224 888.224 2 1 0
1.23987 887.987 887.987 2 1 0
1.23992 887.749 887.749 2 1 0
1.23997 887.512 887.512 2 1 0
1.24002 887.275 887.275 2 1 0
1.24007 887.039 887.039 2 1 0
1.24013 886.802 886.802 2 1 0
1.24018 886.565 886.565 2 1 0
1.24023 886.328 886.328 2 1 0
1.24028 886.091 886.091 2 1 0
1.24033 885.854 885.854 2 1 0
1.24039 885.618 885.618 2 1 0
1.24044 885.381 885.381 2 1 0
1.24049 885.144 885.144 2 1 0
1.24055 884.908 884.908 2 1 0
1.2406 884.671 884.671 2 1 0
1.24066 884.434 884.434 2 1 0
1.24071 884.198 884.198 2 1 0
1.24076 883.961 883.961 2 1 0
1.24082 883.725 883.725 2 1 0
1.24087 883.488 883.488 2 1 0
1.24093 883.252 883.252 2 1 0
1.24099 883.015 883.015 2 1 0
1.24104 882.779 882.779 2 1 0
1.2411 882.543 882.543 2 1 0
1.24115 882.306 882.306 2 1 0
1.24121 882.07 882.07 2 1 0
1.24127 881.834 881.834 2 1 0
1.24133 881.598 881.598 2 1 0
1.24138 881.362 881.362 2 1 0
1.24144 881.125 881.125 2 1 0
1.2415 880.889 880.889 2 1 0
1.24156 880.653 880.653 2 1 0
1.24162 880.417 880.417 2 1 0
1.24167 880.181 880.181 2 1 0
1.24173 879.945 879.945 2 1 0
1.24179 879.709 879.709 2 1 0
1.24185 879.473 879.473 2 1 0
1.24191 879.237 879.237 2 1 0
1.24197 879.002 879.002 2 1 0
1.24203 878.766 878.766 2 1 0
1.24209 878.53 878.53 2 1 0
1.24215 878.294 878.294 2 1 0
1.24221 878.058 878.058 2 1 0
1.24228 877.823 877.823 2 1 0
1.24234 877.587 877.587 2 1 0
1.2424 877.351 877.351 2 1 0
1.24246 877.116 877.116 2 1 0
1.24252 876.88 876.88 2 1 0
1.24259 876.645 876.645 2 1 0
1.24265 876.409 876.409 2 1 0
1.24271 876.174 876.174 2 1 0
1.24277 875.938 875.938 2 1 0
1.24284 875.703 875.703 2 1 0
1.2429 875.467 875.467 2 1 0
1.24297 875.232 875.232 2 1 0
1.24303 874.997 874.997 2 1 0
1.2431 874.761 874.761 2 1 0
1.24316 874.526 874.526 2 1 0
1.24323 874.291 874.291 2 1 0
1.24329 874.056 874.056 2 1 0
1.24336 873.82 873.82 2 1 0
1.24342 873.585 873.585 2 1 0
1.24349 873.35 873.35 2 1 0
1.24356 873.115 873.115 2 1 0
1.24362 872.88 872.88 2 1 0
1.24369 872.645 872.645 2 1 0
1.24376 872.41 872.41 2 1 0
1.24382 872.175 872.175 2 1 0
1.24389 871.94 871.94 2 1 0
1.24396 871.705 871.705 2 1 0
1.24403 871.47 871.47 2 1 0
1.2441 871.235 871.235 2 1 0
1.24417 871 871 2 1 0
1.24424 870.766 870.766 2 1 0
1.2443 870.531 870.531 2 1 0
1.24437 870.296 870.296 2 1 0
1.24444 870.061 870.061 2 1 0
1.24451 869.827 869.827 2 1 0
1.24458 869.592 869.592 2 1 0
1.24466 869.357 869.357 2 1 0
1.24473 869.123 869.123 2 1 0
1.2448 868.888 868.888 2 1 0
1.24487 868.654 868.654 2 1 0
1.24494 868.419 868.419 2 1 0
1.24501 868.185 868.185 2 1 0
1.24509 867.95 867.95 2 1 0
1.24516 867.716 867.716 2 1 0
1.24523 867.481 867.481 2 1 0
1.2453 867.247 867.247 2 1 0
1.24538 867.013 867.013 2 1 0
1.24545 866.778 866.778 2 1 0
1.24553 866.544 866.544 2 1 0
1.2456 866.31 866.31 2 1 0
1.24567 866.076 866.076 2 1 0
1.24575 865.841 865.841 2 1 0
1.24582 865.607 865.607 2 1 0
1.2459 865.373 865.373 2 1 0
1.24598 865.139 865.139 2 1 0
1.24605 864.905 864.905 2 1 0
1.24613 864.671 864.671 2 1 0
1.2462 864.437 864.437 2 1 0
1.24628 864.203 864.203 2 1 0
1.24636 863.969 863.969 2 1 0
1.24644 863.735 863.735 2 1 0
1.24651 863.501 863.501 2 1 0
1.24659 863.267 863.267 2 1 0
1.24667 863.033 863.033 2 1 0
1.24675 862.799 862.799 2 1 0
1.24683 862.566 862.566 2 1 0
1.2469 862.332 862.332 2 1 0
1.24698 862.098 862.098 2 1 0
1.24706 861.864 861.864 2 1 0
1.24714 861.631 861.631 2 1 0
1.24722 861.397 861.397 2 1 0
1.2473 861.163 861.163 2 1 0
1.24738 860.93 860.93 2 1 0
1.24746 860.696 860.696 2 1 0
1.24755 860.463 860.463 2 1 0
1.24763 860.229 860.229 2 1 0
1.24771 859.996 859.996 2 1 0
1.24779 859.762 859.762 2 1 0
1.24787 859.529 859.529 2 1 0
1.24796 859.295 859.295 2 1 0
1.24804 859.062 859.062 2 1 0
1.24812 858.829 858.829 2 1 0
1.24821 858.595 858.595 2 1 0
1.24829 858.362 858.362 2 1 0
1.24837 858.129 858.129 2 1 0
1.24846 857.895 857.895 2 1 0
1.24854 857.662 857.662 2 1 0
1.24863 857.429 857.429 2 1 0
1.24871 857.196 857.196 2 1 0
1.2488 856.963 856.963 2 1 0
1.24888 856.729 856.729 2 1 0
1.24897 856.496 856.496 2 1 0
1.24906 856.263 856.263 2 1 0
1.24914 856.03 856.03 2 1 0
1.24923 855.797 855.797 2 1 0
1.24932 855.564 855.564 2 1 0
1.2494 855.331 855.331 2 1 0
1.24949 855.098 855.098 2 1 0
1.24958 854.865 854.865 2 1 0
1.24967 854.633 854.633 2 1 0
1.24976 854.4 854.4 2 1 0
1.24984 854.167 854.167 2 1 0
1.24993 853.934 853.934 2 1 0
1.25002 853.701 853.701 2 1 0
1.25011 853.469 853.469 2 1 0
1.2502 853.236 853.236 2 1 0
1.25029 853.003 853.003 2 1 0
1.25038 852.77 852.77 2 1 0
1.25047 852.538 852.538 2 1 0
1.25057 852.305 852.305 2 1 0
1.25066 852.073 852.073 2 1 0
1.25075 851.84 851.84 2 1 0
1.25084 851.607 851.607 2 1 0
1.25093 851.375 851.375 2 1 0
1.25103 851.142 851.142 2 1 0
1.25112 850.91 850.91 2 1 0
1.25121 850.677 850.677 2 1 0
1.25131 850.445 850.445 2 1 0
1.2514 850.213 850.213 2 1 0
1.25149 849.98 849.98 2 1 0
1.25159 849.748 849.748 2 1 0
1.25168 849.516 849.516 2 1 0
1.25178 849.283 849.283 2 1 0
1.25187 849.051 849.051 2 1 0
1.25197 848.819 848.819 2 1 0
1.25206 848.587 848.587 2 1 0
1.25216 848.354 848.354 2 1 0
1.25226 848.122 848.122 2 1 0
1.25235 847.89 847.89 2 1 0
1.25245 847.658 847.658 2 1 0
1.25255 847.426 847.426 2 1 0
1.25265 847.194 847.194 2 1 0
1.25274 846.962 846.962 2 1 0
1.25284 846.73 846.73 2 1 0
1.25294 846.498 846.498 2 1 0
1.25304 846.266 846.266 2 1 0
1.25314 846.034 846.034 2 1 0
1.25324 845.802 845.802 2 1 0
1.25334 845.57 845.57 2 1 0
1.25344 845.338 845.338 2 1 0
1.25354 845.106 845.106 2 1 0
1.25364 844.875 844.875 2 1 0
1.25374 844.643 844.643 2 1 0
1.25384 844.411 844.411 2 1 0
1.25394 844.179 844.179 2 1 0
1.25405 843.948 843.948 2 1 0
1.25415 843.716 843.716 2 1 0
1.25425 843.484 843.484 2 1 0
1.25435 843.252 843.252 2 1 0
1.25446 843.021 843.021 2 1 0
1.25456 842.789 842.789 2 1 0
1.25466 842.558 842.558 2 1 0
1.25477 842.326 842.326 2 1 0
1.25487 842.095 842.095 2 1 0
1.25498 841.863 841.863 2 1 0
1.25508 841.632 841.632 2 1 0
1.25519 841.4 841.4 2 1 0
1.25529 841.169 841.169 2 1 0
1.2554 840.937 840.937 2 1 0
1.2555 840.706 840.706 2 1 0
1.25561 840.475 840.475 2 1 0
1.25572 840.243 840.243 2 1 0
1.25582 840.012 840.012 2 1 0
1.25593 839.781 839.781 2 1 0
1.25604 839.549 839.549 2 1 0
1.25615 839.318 839.318 2 1 0
1.25626 839.087 839.087 2 1 0
1.25636 838.856 838.856 2 1 0
1.25647 838.624 838.624 2 1 0
1.25658 838.393 838.393 2 1 0
1.25669 838.162 838.162 2 1 0
1.2568 837.931 837.931 2 1 0
1.25691 837.7 837.7 2 1 0
1.25702 837.469 837.469 2 1 0
1.25713 837.238 837.238 2 1 0
1.25725 837.007 837.007 2 1 0
1.25736 836.776 836.776 2 1 0
1.25747 836.545 836.545 2 1 0
1.25758 836.314 836.314 2 1 0
1.25769 836.083 836.083 2 1 0
1.25781 835.852 835.852 2 1 0
1.25792 835.621 835.621 2 1 0
1.25803 835.39 835.39 2 1 0
1.25815 835.16 835.16 2 1 0
1.25826 834.929 834.929 2 1 0
1.25838 834.698 834.698 2 1 0
1.25849 834.467 834.467 2 1 0
1.25861 834.236 834.236 2 1 0
1.25872 834.006 834.006 2 1 0
1.25884 833.775 833.775 2 1 0
1.25895 833.544 833.544 2 1 0
1.25907 833.314 833.314 2 1 0
1.25919 833.083 833.083 2 1 0
1.2593 832.852 832.852 2 1 0
1.25942 832.622 832.622 2 1 0
1.25954 832.391 832.391 2 1 0
1.25965 832.161 832.161 2 1 0
1.25977 831.93 831.93 2 1 0
1.25989 831.7 831.7 2 1 0
1.26001 831.469 831.469 2 1 0
1.26013 831.239 831.239 2 1 0
1.26025 831.008 831.008 2 1 0
1.26037 830.778 830.778 2 1 0
1.26049 830.548 830.548 2 1 0
1.26061 830.317 830.317 2 1 0
1.26073 830.087 830.087 2 1 0
1.26085 829.857 829.857 2 1 0
1.26097 829.626 829.626 2 1 0
1.2611 829.396 829.396 2 1 0
1.26122 829.166 829.166 2 1 0
1.26134 828.935 828.935 2 1 0
1.26146 828.705 828.705 2 1 0
1.26159 828.475 828.475 2 1 0
1.26171 828.245 828.245 2 1 0
1.26183 828.015 828.015 2 1 0
1.26196 827.785 827.785 2 1 0
1.26208 827.554 827.554 2 1 0
1.26221 827.324 827.324 2 1 0
1.26233 827.094 827.094 2 1 0
1.26246 826.864 826.864 2 1 0
1.26258 826.634 826.634 2 1 0
1.26271 826.404 826.404 2 1 0
1.26284 826.174 826.174 2 1 0
1.26296 825.944 825.944 2 1 0
1.26309 825.714 825.714 2 1 0
1.26322 825.484 825.484 2 1 0
1.26335 825.254 825.254 2 1 0
1.26347 825.025 825.025 2 1 0
1.2636 824.795 824.795 2 1 0
1.26373 824.565 824.565 2 1 0
1.26386 824.335 824.335 2 1 0
1.26399 824.105 824.105 2 1 0
1.26412 823.875 823.875 2 1 0
1.26425 823.646 823.646 2 1 0
1.26438 823.416 823.416 2 1 0
1.26451 823.186 823.186 2 1 0
1.26464 822.957 822.957 2 1 0
1.26478 822.727 822.727 2 1 0
1.26491 822.497 822.497 2 1 0
1.26504 822.268 822.268 2 1 0
1.26517 822.038 822.038 2 1 0
1.26531 821.808 821.808 2 1 0
1.26544 821.579 821.579 2 1 0
1.26557 821.349 821.349 2 1 0
1.26571 821.12 821.12 2 1 0
1.26584 820.89 820.89 2 1 0
1.26598 820.661 820.661 2 1 0
1.26611 820.431 820.431 2 1 0
1.26625 820.202 820.202 2 1 0
1.26638 819.972 819.972 2 1 0
1.26652 819.743 819.743 2 1 0
1.26665 819.513 819.513 2 1 0
1.26679 819.284 819.284 2 1 0
1.26693 819.055 819.055 2 1 0
1.26707 818.825 818.825 2 1 0
1.2672 818.596 818.596 2 1 0
1.26734 818.367 818.367 2 1 0
1.26748 818.137 818.137 2 1 0
1.26762 817.908 817.908 2 1 0
1.26776 817.679 817.679 2 1 0
1.2679 817.45 817.45 2 1 0
1.26804 817.221 817.221 2 1 0
1.26818 816.991 816.991 2 1 0
1.26832 816.762 816.762 2 1 0
1.26846 816.533 816.533 2 1 0
1.2686 816.304 816.304 2 1 0
1.26874 816.075 816.075 2 1 0
1.26889 815.846 815.846 2 1 0
1.26903 815.617 815.617 2 1 0
1.26917 815.388 815.388 2 1 0
1.26931 815.158 815.158 2 1 0
1.26946 814.929 814.929 2 1 0
1.2696 814.7 814.7 2 1 0
1.26975 814.471 814.471 2 1 0
1.26989 814.243 814.243 2 1 0
1.27004 814.014 814.014 2 1 0
1.27018 813.785 813.785 2 1 0
1.27033 813.556 813.556 2 1 0
1.27047 813.327 813.327 2 1 0
1.27062 813.098 813.098 2 1 0
1.27077 812.869 812.869 2 1 0
1.27091 812.64 812.64 2 1 0
1.27106 812.411 812.411 2 1 0
1.27121 812.183 812.183 2 1 0
1.27136 811.954 811.954 2 1 0
1.2715 811.725 811.725 2 1 0
1.27165 811.496 811.496 2 1 0
1.2718 811.268 811.268 2 1 0
1.27195 811.039 811.039 2 1 0
1.2721 810.81 810.81 2 1 0
1.27225 810.582 810.582 2 1 0
1.2724 810.353 810.353 2 1 0
1.27256 810.124 810.124 2 1 0
1.27271 809.896 809.896 2 1 0
1.27286 809.667 809.667 2 1 0
1.27301 809.439 809.439 2 1 0
1.27316 809.21 809.21 2 1 0
1.27332 808.981 808.981 2 1 0
1.27347 808.753 808.753 2 1 0
1.27362 808.524 808.524 2 1 0
1.27378 808.296 808.296 2 1 0
1.27393 808.067 808.067 2 1 0
1.27409 807.839 807.839 2 1 0
1.27424 807.611 807.611 2 1 0
1.2744 807.382 807.382 2 1 0
1.27455 807.154 807.154 2 1 0
1.27471 806.925 806.925 2 1 0
1.27487 806.697 806.697 2 1 0
1.27503 806.469 806.469 2 1 0
1.27518 806.24 806.24 2 1 0
1.27534 806.012 806.012 2 1 0
1.2755 805.784 805.784 2 1 0
1.27566 805.555 805.555 2 1 0
1.27582 805.327 805.327 2 1 0
1.27598 805.099 805.099 2 1 0
1.27614 804.871 804.871 2 1 0
1.2763 804.642 804.642 2 1 0
1.27646 804.414 804.414 2 1 0
1.27662 804.186 804.186 2 1 0
1.27678 803.958 803.958 2 1 0
1.27694 803.73 803.73 2 1 0
1.2771 803.501 803.501 2 1 0
1.27727 803.273 803.273 2 1 0
1.27743 803.045 803.045 2 1 0
1.27759 802.817 802.817 2 1 0
1.27776 802.589 802.589 2 1 0
1.27792 802.361 802.361 2 1 0
1.27808 802.133 802.133 2 1 0
1.27825 801.905 801.905 2 1 0
1.27841 801.677 801.677 2 1 0
1.27858 801.449 801.449 2 1 0
1.27875 801.221 801.221 2 1 0
1.27891 800.993 800.993 2 1 0
1.27908 800.765 800.765 2 1 0
1.27925 800.537 800.537 2 1 0
1.27941 800.309 800.309 2 1 0
1.27958 800.081 800.081 2 1 0
1.27975 799.854 799.854 2 1 0
1.27992 799.626 799.626 2 1 0
1.28009 799.398 799.398 2 1 0
1.28026 799.17 799.17 2 1 0
1.28043 798.942 798.942 2 1 0
1.2806 798.714 798.714 2 1 0
1.28077 798.487 798.487 2 1 0
1.28094 798.259 798.259 2 1 0
1.28111 798.031 798.031 2 1 0
1.28128 797.803 797.803 2 1 0
1.28146 797.576 797.576 2 1 0
1.28163 797.348 797.348 2 1 0
1.2818 797.12 797.12 2 1 0
1.28197 796.893 796.893 2 1 0
1.28215 796.665 796.665 2 1 0
1.28232 796.437 796.437 2 1 0
1.2825 796.21 796.21 2 1 0
1.28267 795.982 795.982 2 1 0
1.28285 795.754 795.754 2 1 0
1.28302 795.527 795.527 2 1 0
1.2832 795.299 795.299 2 1 0
1.28338 795.072 795.072 2 1 0
1.28355 794.844 794.844 2 1 0
1.28373 794.617 794.617 2 1 0
1.28391 794.389 794.389 2 1 0
1.28409 794.162 794.162 2 1 0
1.28427 793.934 793.934 2 1 0
1.28445 793.707 793.707 2 1 0
1.28463 793.479 793.479 2 1 0
1.28481 793.252 793.252 2 1 0
1.28499 793.024 793.024 2 1 0
1.28517 792.797 792.797 2 1 0
1.28535 792.57 792.57 2 1 0
1.28553 792.342 792.342 2 1 0
1.28571 792.115 792.115 2 1 0
1.28589 791.888 791.888 2 1 0
1.28608 791.66 791.66 2 1 0
1.28626 791.433 791.433 2 1 0
1.28644 791.206 791.206 2 1 0
1.28663 790.978 790.978 2 1 0
1.28681 790.751 790.751 2 1 0
1.287 790.524 790.524 2 1 0
1.28718 790.297 790.297 2 1 0
1.28737 790.069 790.069 2 1 0
1.28756 789.842 789.842 2 1 0
1.28774 789.615 789.615 2 1 0
1.28793 789.388 789.388 2 1 0
1.28812 789.16 789.16 2 1 0
1.28831 788.933 788.933 2 1 0
1.28849 788.706 788.706 2 1 0
1.28868 788.479 788.479 2 1 0
1.28887 788.252 788.252 2 1 0
1.28906 788.025 788.025 2 1 0
1.28925 787.798 787.798 2 1 0
1.28944 787.571 787.571 2 1 0
1.28963 787.344 787.344 2 1 0
1.28982 787.117 787.117 2 1 0
1.29002 786.889 786.889 2 1 0
1.29021 786.662 786.662 2 1 0
1.2904 786.435 786.435 2 1 0
1.29059 786.208 786.208 2 1 0
1.29079 785.981 785.981 2 1 0
1.29098 785.754 785.754 2 1 0
1.29118 785.528 785.528 2 1 0
1.29137 785.301 785.301 2 1 0
1.29157 785.074 785.074 2 1 0
1.29176 784.847 784.847 2 1 0
1.29196 784.62 784.62 2 1 0
1.29215 784.393 784.393 2 1 0
1.29235 784.166 784.166 2 1 0
1.29255 783.939 783.939 2 1 0
1.29275 783.712 783.712 2 1 0
1.29294 783.486 783.486 2 1 0
1.29314 783.259 783.259 2 1 0
1.29334 783.032 783.032 2 1 0
1.29354 782.805 782.805 2 1 0
1.29374 782.578 782.578 2 1 0
1.29394 782.351 782.351 2 1 0
1.29414 782.125 782.125 2 1 0
1.29435 781.898 781.898 2 1 0
1.29455 781.671 781.671 2 1 0
1.29475 781.445 781.445 2 1 0
1.29495 781.218 781.218 2 1 0
1.29516 780.991 780.991 2 1 0
1.29536 780.764 780.764 2 1 0
1.29556 780.538 780.538 2 1 0
1.29577 780.311 780.311 2 1 0
1.29597 780.084 780.084 2 1 0
1.29618 779.858 779.858 2 1 0
1.29638 779.631 779.631 2 1 0
1.29659 779.405 779.405 2 1 0
1.2968 779.178 779.178 2 1 0
1.297 778.951 778.951 2 1 0
1.29721 778.725 778.725 2 1 0
1.29742 778.498 778.498 2 1 0
1.29763 778.272 778.272 2 1 0
1.29784 778.045 778.045 2 1 0
1.29805 777.819 777.819 2 1 0
1.29826 777.592 777.592 2 1 0
1.29847 777.366 777.366 2 1 0
1.29868 777.139 777.139 2 1 0
1.29889 776.913 776.913 2 1 0
1.2991 776.686 776.686 2 1 0
1.29931 776.46 776.46 2 1 0
1.29953 776.233 776.233 2 1 0
1.29974 776.007 776.007 2 1 0
1.29995 775.78 775.78 2 1 0
1.30017 775.554 775.554 2 1 0
1.30038 775.328 775.328 2 1 0
1.3006 775.101 775.101 2 1 0
1.30081 774.875 774.875 2 1 0
1.30103 774.648 774.648 2 1 0
1.30124 774.422 774.422 2 1 0
1.30146 774.196 774.196 2 1 0
1.30168 773.969 773.969 2 1 0
1.3019 773.743 773.743 2 1 0
1.30211 773.517 773.517 2 1 0
1.30233 773.29 773.29 2 1 0
1.30255 773.064 773.064 2 1 0
1.30277 772.838 772.838 2 1 0
1.30299 772.612 772.612 2 1 0
1.30321 772.385 772.385 2 1 0
1.30343 772.159 772.159 2 1 0
1.30366 771.933 771.933 2 1 0
1.30388 771.707 771.707 2 1 0
1.3041 771.48 771.48 2 1 0
1.30432 771.254 771.254 2 1 0
1.30455 771.028 771.028 2 1 0
1.30477 770.802 770.802 2 1 0
1.305 770.576 770.576 2 1 0
1.30522 770.35 770.35 2 1 0
1.30545 770.123 770.123 2 1 0
1.30567 769.897 769.897 2 1 0
1.3059 769.671 769.671 2 1 0
1.30612 769.445 769.445 2 1 0
1.30635 769.219 769.219 2 1 0
1.30658 768.993 768.993 2 1 0
1.30681 768.767 768.767 2 1 0
1.30704 768.541 768.541 2 1 0
1.30727 768.315 768.315 2 1 0
1.3075 768.088 768.088 2 1 0
1.30773 767.862 767.862 2 1 0
1.30796 767.636 767.636 2 1 0
1.30819 767.41 767.41 2 1 0
1.30842 767.184 767.184 2 1 0
1.30865 766.958 766.958 2 1 0
1.30889 766.732 766.732 2 1 0
1.30912 766.506 766.506 2 1 0
1.30935 766.28 766.28 2 1 0
1.30959 766.054 766.054 2 1 0
1.30982 765.828 765.828 2 1 0
1.31006 765.603 765.603 2 1 0
1.31029 765.377 765.377 2 1 0
1.31053 765.151 765.151 2 1 0
1.31076 764.925 764.925 2 1 0
1.311 764.699 764.699 2 1 0
1.31124 764.473 764.473 2 1 0
1.31148 764.247 764.247 2 1 0
1.31172 764.021 764.021 2 1 0
1.31196 763.795 763.795 2 1 0
1.3122 763.569 763.569 2 1 0
1.31244 763.344 763.344 2 1 0
1.31268 763.118 763.118 2 1 0
1.31292 762.892 762.892 2 1 0
1.31316 762.666 762.666 2 1 0
1.3134 762.44 762.44 2 1 0
1.31364 762.214 762.214 2 1 0
1.31389 761.989 761.989 2 1 0
1.31413 761.763 761.763 2 1 0
1.31438 761.537 761.537 2 1 0
1.31462 761.311 761.311 2 1 0
1.31487 761.086 761.086 2 1 0
1.31511 760.86 760.86 2 1 0
1.31536 760.634 760.634 2 1 0
1.31561 760.408 760.408 2 1 0
1.31585 760.183 760.183 2 1 0
1.3161 759.957 759.957 2 1 0
1.31635 759.731 759.731 2 1 0
1.3166 759.506 759.506 2 1 0
1.31685 759.28 759.28 2 1 0
1.3171 759.054 759.054 2 1 0
1.31735 758.829 758.829 2 1 0
1.3176 758.603 758.603 2 1 0
1.31785 758.377 758.377 2 1 0
1.3181 758.152 758.152 2 1 0
1.31835 757.926 757.926 2 1 0
1.31861 757.7 757.7 2 1 0
1.31886 757.475 757.475 2 1 0
1.31912 757.249 757.249 2 1 0
1.31937 757.023 757.023 2 1 0
1.31963 756.798 756.798 2 1 0
1.31988 756.572 756.572 2 1 0
1.32014 756.347 756.347 2 1 0
1.32039 756.121 756.121 2 1 0
1.32065 755.896 755.896 2 1 0
1.32091 755.67 755.67 2 1 0
1.32117 755.444 755.444 2 1 0
1.32143 755.219 755.219 2 1 0
1.32169 754.993 754.993 2 1 0
1.32195 754.768 754.768 2 1 0
1.32221 754.542 754.542 2 1 0
1.32247 754.317 754.317 2 1 0
1.32273 754.091 754.091 2 1 0
1.32299 753.866 753.866 2 1 0
1.32326 753.64 753.64 2 1 0
1.32352 753.415 753.415 2 1 0
1.32378 753.189 753.189 2 1 0
1.32405 752.964 752.964 2 1 0
1.32431 752.739 752.739 2 1 0
1.32458 752.513 752.513 2 1 0
1.32484 752.288 752.288 2 1 0
1.32511 752.062 752.062 2 1 0
1.32538 751.837 751.837 2 1 0
1.32564 751.611 751.611 2 1 0
1.32591 751.386 751.386 2 1 0
1.32618 751.161 751.161 2 1 0
1.32645 750.935 750.935 2 1 0
1.32672 750.71 750.71 2 1 0
1.32699 750.484 750.484 2 1 0
1.32726 750.259 750.259 2 1 0
1.32753 750.034 750.034 2 1 0
1.32781 749.808 749.808 2 1 0
1.32808 749.583 749.583 2 1 0
1.32835 749.358 749.358 2 1 0
1.32863 749.132 749.132 2 1 0
1.3289 748.907 748.907 2 1 0
1.32918 748.682 748.682 2 1 0
1.32945 748.456 748.456 2 1 0
1.32973 748.231 748.231 2 1 0
1.33 748.006 748.006 2 1 0
1.33028 747.78 747.78 2 1 0
1.33056 747.555 747.555 2 1 0
1.33084 747.33 747.33 2 1 0
1.33112 747.105 747.105 2 1 0
1.33139 746.879 746.879 2 1 0
1.33167 746.654 746.654 2 1 0
1.33196 746.429 746.429 2 1 0
1.33224 746.204 746.204 2 1 0
1.33252 745.978 745.978 2 1 0
1.3328 745.753 745.753 2 1 0
1.33308 745.528 745.528 2 1 0
1.33337 745.303 745.303 2 1 0
1.33365 745.077 745.077 2 1 0
1.33394 744.852 744.852 2 1 0
1.33422 744.627 744.627 2 1 0
1.33451 744.402 744.402 2 1 0
1.33479 744.177 744.177 2 1 0
1.33508 743.952 743.952 2 1 0
1.33537 743.726 743.726 2 1 0
1.33566 743.501 743.501 2 1 0
1.33594 743.276 743.276 2 1 0
1.33623 743.051 743.051 2 1 0
1.33652 742.826 742.826 2 1 0
1.33681 742.601 742.601 2 1 0
1.33711 742.375 742.375 2 1 0
1.3374 742.15 742.15 2 1 0
1.33769 741.925 741.925 2 1 0
1.33798 741.7 741.7 2 1 0
1.33828 741.475 741.475 2 1 0
1.33857 741.25 741.25 2 1 0
1.33886 741.025 741.025 2 1 0
1.33916 740.8 740.8 2 1 0
1.33946 740.575 740.575 2 1 0
1.33975 740.349 740.349 2 1 0
1.34005 740.124 740.124 2 1 0
1.34035 739.899 739.899 2 1 0
1.34065 739.674 739.674 2 1 0
1.34094 739.449 739.449 2 1 0
1.34124 739.224 739.224 2 1 0
1.34154 738.999 738.999 2 1 0
1.34184 738.774 738.774 2 1 0
1.34215 738.549 738.549 2 1 0
1.34245 738.324 738.324 2 1 0
1.34275 738.099 738.099 2 1 0
1.34305 737.874 737.874 2 1 0
1.34336 737.649 737.649 2 1 0
1.34366 737.424 737.424 2 1 0
1.34397 737.199 737.199 2 1 0
1.34427 736.974 736.974 2 1 0
1.34458 736.749 736.749 2 1 0
1.34489 736.524 736.524 2 1 0
1.34519 736.299 736.299 2 1 0
1.3455 736.074 736.074 2 1 0
1.34581 735.849 735.849 2 1 0
1.34612 735.624 735.624 2 1 0
1.34643 735.399 735.399 2 1 0
1.34674 735.174 735.174 2 1 0
1.34705 734.949 734.949 2 1 0
1.34736 734.724 734.724 2 1 0
1.34767 734.499 734.499 2 1 0
1.34799 734.274 734.274 2 1 0
1.3483 734.049 734.049 2 1 0
1.34862 733.824 733.824 2 1 0
1.34893 733.599 733.599 2 1 0
1.34925 733.374 733.374 2 1 0
1.34956 733.15 733.15 2 1 0
1.34988 732.925 732.925 2 1 0
1.3502 732.7 732.7 2 1 0
1.35052 732.475 732.475 2 1 0
1.35083 732.25 732.25 2 1 0
1.35115 732.025 732.025 2 1 0
1.35147 731.8 731.8 2 1 0
1.35179 731.575 731.575 2 1 0
1.35212 731.35 731.35 2 1 0
1.35244 731.126 731.126 2 1 0
1.35276 730.901 730.901 2 1 0
1.35308 730.676 730.676 2 1 0
1.35341 730.451 730.451 2 1 0
1.35373 730.226 730.226 2 1 0
1.35406 730.001 730.001 2 1 0
1.35438 729.776 729.776 2 1 0
1.35471 729.551 729.551 2 1 0
1.35504 729.327 729.327 2 1 0
1.35537 729.102 729.102 2 1 0
1.35569 728.877 728.877 2 1 0
1.35602 728.652 728.652 2 1 0
1.35635 728.427 728.427 2 1 0
1.35668 728.202 728.202 2 1 0
1.35701 727.978 727.978 2 1 0
1.35735 727.753 727.753 2 1 0
1.35768 727.528 727.528 2 1 0
1.35801 727.303 727.303 2 1 0
1.35835 727.078 727.078 2 1 0
1.35868 726.854 726.854 2 1 0
1.35902 726.629 726.629 2 1 0
1.35935 726.404 726.404 2 1 0
1.35969 726.179 726.179 2 1 0
1.36003 725.954 725.954 2 1 0
1.36036 725.73 725.73 2 1 0
1.3607 725.505 725.505 2 1 0
1.36104 725.28 725.28 2 1 0
1.36138 725.055 725.055 2 1 0
1.36172 724.831 724.831 2 1 0
1.36206 724.606 724.606 2 1 0
1.3624 724.381 724.381 2 1 0
1.36275 724.156 724.156 2 1 0
1.36309 723.932 723.932 2 1 0
1.36343 723.707 723.707 2 1 0
1.36378 723.482 723.482 2 1 0
1.36412 723.257 723.257 2 1 0
1.36447 723.033 723.033 2 1 0
1.36482 722.808 722.808 2 1 0
1.36517 722.583 722.583 2 1 0
1.36551 722.358 722.358 2 1 0
1.36586 722.134 722.134 2 1 0
1.36621 721.909 721.909 2 1 0
1.36656 721.684 721.684 2 1 0
1.36691 721.46 721.46 2 1 0
1.36726 721.235 721.235 2 1 0
1.36762 721.01 721.01 2 1 0
1.36797 720.785 720.785 2 1 0
1.36832 720.561 720.561 2 1 0
1.36868 720.336 720.336 2 1 0
1.36903 720.111 720.111 2 1 0
1.36939 719.887 719.887 2 1 0
1.36975 719.662 719.662 2 1 0
1.3701 719.437 719.437 2 1 0
1.37046 719.213 719.213 2 1 0
1.37082 718.988 718.988 2 1 0
1.37118 718.763 718.763 2 1 0
1.37154 718.539 718.539 2 1 0
1.3719 718.314 718.314 2 1 0
1.37226 718.089 718.089 2 1 0
1.37262 717.865 717.865 2 1 0
1.37299 717.64 717.64 2 1 0
1.37335 717.415 717.415 2 1 0
1.37372 717.191 717.191 2 1 0
1.37408 716.966 716.966 2 1 0
1.37445 716.741 716.741 2 1 0
1.37481 716.517 716.517 2 1 0
1.37518 716.292 716.292 2 1 0
1.37555 716.067 716.067 2 1 0
1.37592 715.843 715.843 2 1 0
1.37629 715.618 715.618 2 1 0
1.37666 715.393 715.393 2 1 0
1.37703 715.169 715.169 2 1 0
1.3774 714.944 714.944 2 1 0
1.37777 714.72 714.72 2 1 0
1.37815 714.495 714.495 2 1 0
1.37852 714.27 714.27 2 1 0
1.37889 714.046 714.046 2 1 0
1.37927 713.821 713.821 2 1 0
1.37965 713.596 713.596 2 1 0
1.38002 713.372 713.372 2 1 0
1.3804 713.147 713.147 2 1 0
1.38078 712.923 712.923 2 1 0
1.38116 712.698 712.698 2 1 0
1.38154 712.473 712.473 2 1 0
1.38192 712.249 712.249 2 1 0
1.3823 712.024 712.024 2 1 0
1.38268 711.8 711.8 2 1 0
1.38307 711.575 711.575 2 1 0
1.38345 711.35 711.35 2 1 0
1.38383 711.126 711.126 2 1 0
1.38422 710.901 710.901 2 1 0
1.38461 710.677 710.677 2 1 0
1.38499 710.452 710.452 2 1 0
1.38538 710.227 710.227 2 1 0
1.38577 710.003 710.003 2 1 0
1.38616 709.778 709.778 2 1 0
1.38655 709.554 709.554 2 1 0
1.38694 709.329 709.329 2 1 0
1.38733 709.105 709.105 2 1 0
1.38772 708.88 708.88 2 1 0
1.38811 708.655 708.655 2 1 0
1.38851 708.431 708.431 2 1 0
1.3889 708.206 708.206 2 1 0
1.3893 707.982 707.982 2 1 0
1.38969 707.757 707.757 2 1 0
1.39009 707.533 707.533 2 1 0
1.39049 707.308 707.308 2 1 0
1.39089 707.083 707.083 2 1 0
1.39129 706.859 706.859 2 1 0
1.39169 706.634 706.634 2 1 0
1.39209 706.41 706.41 2 1 0
1.39249 706.185 706.185 2 1 0
1.39289 705.961 705.961 2 1 0
1.39329 705.736 705.736 2 1 0
1.3937 705.512 705.512 2 1 0
1.3941 705.287 705.287 2 1 0
1.39451 705.062 705.062 2 1 0
1.39492 704.838 704.838 2 1 0
1.39532 704.613 704.613 2 1 0
1.39573 704.389 704.389 2 1 0
1.39614 704.164 704.164 2 1 0
1.39655 703.94 703.94 2 1 0
1.39696 703.715 703.715 2 1 0
1.39737 703.491 703.491 2 1 0
1.39778 703.266 703.266 2 1 0
1.3982 703.042 703.042 2 1 0
1.39861 702.817 702.817 2 1 0
1.39902 702.593 702.593 2 1 0
1.39944 702.368 702.368 2 1 0
1.39986 702.144 702.144 2 1 0
1.40027 701.919 701.919 2 1 0
1.40069 701.695 701.695 2 1 0
1.40111 701.47 701.47 2 1 0
1.40153 701.245 701.245 2 1 0
1.40195 701.021 701.021 2 1 0
1.40237 700.796 700.796 2 1 0
1.40279 700.572 700.572 2 1 0
1.40321 700.347 700.347 2 1 0
1.40364 700.123 700.123 2 1 0
1.40406 699.898 699.898 2 1 0
1.40449 699.674 699.674 2 1 0
1.40491 699.449 699.449 2 1 0
1.40534 699.225 699.225 2 1 0
1.40577 699 699 2 1 0
1.4062 698.776 698.776 2 1 0
1.40663 698.551 698.551 2 1 0
1.40706 698.327 698.327 2 1 0
1.40749 698.102 698.102 2 1 0
1.40792 697.878 697.878 2 1 0
1.40835 697.653 697.653 2 1 0
1.40879 697.429 697.429 2 1 0
1.40922 697.204 697.204 2 1 0
1.40966 696.98 696.98 2 1 0
1.41009 696.755 696.755 2 1 0
1.41053 696.531 696.531 2 1 0
1.41097 696.306 696.306 2 1 0
1.41141 696.082 696.082 2 1 0
1.41185 695.857 695.857 2 1 0
1.41229 695.633 695.633 2 1 0
1.41273 695.408 695.408 2 1 0
1.41317 695.184 695.184 2 1 0
1.41362 694.959 694.959 2 1 0
1.41406 694.735 694.735 2 1 0
1.41451 694.51 694.51 2 1 0
1.41495 694.286 694.286 2 1 0
1.4154 694.062 694.062 2 1 0
1.41585 693.837 693.837 2 1 0
1.41629 693.613 693.613 2 1 0
1.41674 693.388 693.388 2 1 0
1.41719 693.164 693.164 2 1 0
1.41765 692.939 692.939 2 1 0
1.4181 692.715 692.715 2 1 0
1.41855 692.49 692.49 2 1 0
1.419 692.266 692.266 2 1 0
1.41946 692.041 692.041 2 1 0
1.41992 691.817 691.817 2 1 0
1.42037 691.592 691.592 2 1 0
1.42083 691.368 691.368 2 1 0
1.42129 691.143 691.143 2 1 0
1.42175 690.919 690.919 2 1 0
1.42221 690.694 690.694 2 1 0
1.42267 690.47 690.47 2 1 0
1.42313 690.245 690.245 2 1 0
1.42359 690.021 690.021 2 1 0
1.42406 689.797 689.797 2 1 0
1.42452 689.572 689.572 2 1 0
1.42499 689.348 689.348 2 1 0
1.42545 689.123 689.123 2 1 0
1.42592 688.899 688.899 2 1 0
1.42639 688.674 688.674 2 1 0
1.42686 688.45 688.45 2 1 0
1.42733 688.225 688.225 2 1 0
1.4278 688.001 688.001 2 1 0
1.42827 687.776 687.776 2 1 0
1.42875 687.552 687.552 2 1 0
1.42922 687.327 687.327 2 1 0
1.4297 687.103 687.103 2 1 0
1.43017 686.878 686.878 2 1 0
1.43065 686.654 686.654 2 1 0
1.43113 686.43 686.43 2 1 0
1.43161 686.205 686.205 2 1 0
1.43208 685.981 685.981 2 1 0
1.43257 685.756 685.756 2 1 0
1.43305 685.532 685.532 2 1 0
1.43353 685.307 685.307 2 1 0
1.43401 685.083 685.083 2 1 0
1.4345 684.858 684.858 2 1 0
1.43498 684.634 684.634 2 1 0
1.43547 684.409 684.409 2 1 0
1.43596 684.185 684.185 2 1 0
1.43644 683.961 683.961 2 1 0
1.43693 683.736 683.736 2 1 0
1.43742 683.512 683.512 2 1 0
1.43792 683.287 683.287 2 1 0
1.43841 683.063 683.063 2 1 0
1.4389 682.838 682.838 2 1 0
1.43939 682.614 682.614 2 1 0
1.43989 682.389 682.389 2 1 0
1.44039 682.165 682.165 2 1 0
1.44088 681.941 681.941 2 1 0
1.44138 681.716 681.716 2 1 0
1.44188 681.492 681.492 2 1 0
1.44238 681.267 681.267 2 1 0
1.44288 681.043 681.043 2 1 0
1.44338 680.818 680.818 2 1 0
1.44389 680.594 680.594 2 1 0
1.44439 680.369 680.369 2 1 0
1.44489 680.145 680.145 2 1 0
1.4454 679.921 679.921 2 1 0
1.44591 679.696 679.696 2 1 0
1.44642 679.472 679.472 2 1 0
1.44692 679.247 679.247 2 1 0
1.44743 679.023 679.023 2 1 0
1.44794 678.798 678.798 2 1 0
1.44846 678.574 678.574 2 1 0
1.44897 678.349 678.349 2 1 0
1.44948 678.125 678.125 2 1 0
1.45 677.901 677.901 2 1 0
1.45051 677.676 677.676 2 1 0
1.45103 677.452 677.452 2 1 0
1.45155 677.227 677.227 2 1 0
1.45207 677.003 677.003 2 1 0
1.45259 676.778 676.778 2 1 0
1.45311 676.554 676.554 2 1 0
1.45363 676.33 676.33 2 1 0
1.45416 676.105 676.105 2 1 0
1.45468 675.881 675.881 2 1 0
1.4552 675.656 675.656 2 1 0
1.45573 675.432 675.432 2 1 0
1.45626 675.207 675.207 2 1 0
1.45679 674.983 674.983 2 1 0
1.45732 674.759 674.759 2 1 0
1.45785 674.534 674.534 2 1 0
1.45838 674.31 674.31 2 1 0
1.45891 674.085 674.085 2 1 0
1.45944 673.861 673.861 2 1 0
1.45998 673.636 673.636 2 1 0
1.46051 673.412 673.412 2 1 0
1.46105 673.188 673.188 2 1 0
1.46159 672.963 672.963 2 1 0
1.46213 672.739 672.739 2 1 0
1.46267 672.514 672.514 2 1 0
1.46321 672.29 672.29 2 1 0
1.46375 672.065 672.065 2 1 0
1.46429 671.841 671.841 2 1 0
1.46484 671.617 671.617 2 1 0
1.46538 671.392 671.392 2 1 0
1.46593 671.168 671.168 2 1 0
1.46648 670.943 670.943 2 1 0
1.46703 670.719 670.719 2 1 0
1.46758 670.495 670.495 2 1 0
1.46813 670.27 670.27 2 1 0
1.46868 670.046 670.046 2 1 0
1.46923 669.821 669.821 2 1 0
1.46979 669.597 669.597 2 1 0
1.47034 669.372 669.372 2 1 0
1.4709 669.148 669.148 2 1 0
1.47145 668.924 668.924 2 1 0
1.47201 668.699 668.699 2 1 0
1.47257 668.475 668.475 2 1 0
1.47313 668.25 668.25 2 1 0
1.47369 668.026 668.026 2 1 0
1.47426 667.802 667.802 2 1 0
1.47482 667.577 667.577 2 1 0
1.47539 667.353 667.353 2 1 0
1.47595 667.128 667.128 2 1 0
1.47652 666.904 666.904 2 1 0
1.47709 666.68 666.68 2 1 0
1.47766 666.455 666.455 2 1 0
1.47823 666.231 666.231 2 1 0
1.4788 666.006 666.006 2 1 0
1.47937 665.782 665.782 2 1 0
1.47995 665.558 665.558 2 1 0
1.48052 665.333 665.333 2 1 0
1.4811 665.109 665.109 2 1 0
1.48168 664.884 664.884 2 1 0
1.48226 664.66 664.66 2 1 0
1.48284 664.436 664.436 2 1 0
1.48342 664.211 664.211 2 1 0
1.484 663.987 663.987 2 1 0
1.48458 663.762 663.762 2 1 0
1.48517 663.538 663.538 2 1 0
1.48575 663.314 663.314 2 1 0
1.48634 663.089 663.089 2 1 0
1.48693 662.865 662.865 2 1 0
1.48752 662.64 662.64 2 1 0
1.48811 662.416 662.416 2 1 0
1.4887 662.192 662.192 2 1 0
1.48929 661.967 661.967 2 1 0
1.48988 661.743 661.743 2 1 0
1.49048 661.519 661.519 2 1 0
1.49107 661.294 661.294 2 1 0
1.49167 661.07 661.07 2 1 0
1.49227 660.845 660.845 2 1 0
1.49287 660.621 660.621 2 1 0
1.49347 660.397 660.397 2 1 0
1.49407 660.172 660.172 2 1 0
1.49468 659.948 659.948 2 1 0
1.49528 659.723 659.723 2 1 0
1.49589 659.499 659.499 2 1 0
1.49649 659.275 659.275 2 1 0
1.4971 659.05 659.05 2 1 0
1.49771 658.826 658.826 2 1 0
1.49832 658.602 658.602 2 1 0
1.49893 658.377 658.377 2 1 0
1.49955 658.153 658.153 2 1 0
1.50016 657.929 657.929 2 1 0
1.50077 657.704 657.704 2 1 0
1.50139 657.48 657.48 2 1 0
1.50201 657.255 657.255 2 1 0
1.50263 657.031 657.031 2 1 0
1.50325 656.807 656.807 2 1 0
1.50387 656.582 656.582 2 1 0
1.50449 656.358 656.358 2 1 0
1.50512 656.134 656.134 2 1 0
1.50574 655.909 655.909 2 1 0
1.50637 655.685 655.685 2 1 0
1.507 655.461 655.461 2 1 0
1.50762 655.236 655.236 2 1 0
1.50825 655.012 655.012 2 1 0
1.50889 654.788 654.788 2 1 0
1.50952 654.563 654.563 2 1 0
1.51015 654.339 654.339 2 1 0
1.51079 654.115 654.115 2 1 0
1.51142 653.89 653.89 2 1 0
1.51206 653.666 653.666 2 1 0
1.5127 653.442 653.442 2 1 0
1.51334 653.217 653.217 2 1 0
1.51398 652.993 652.993 2 1 0
1.51463 652.769 652.769 2 1 0
1.51527 652.544 652.544 2 1 0
1.51592 652.32 652.32 2 1 0
1.51656 652.096 652.096 2 1 0
1.51721 651.871 651.871 2 1 0
1.51786 651.647 651.647 2 1 0
1.51851 651.423 651.423 2 1 0
1.51916 651.198 651.198 2 1 0
1.51981 650.974 650.974 2 1 0
1.52047 650.75 650.75 2 1 0
1.52112 650.525 650.525 2 1 0
1.52178 650.301 650.301 2 1 0
1.52244 650.077 650.077 2 1 0
1.5231 649.853 649.853 2 1 0
1.52376 649.628 649.628 2 1 0
1.52442 649.404 649.404 2 1 0
1.52509 649.18 649.18 2 1 0
1.52575 648.955 648.955 2 1 0
1.52642 648.731 648.731 2 1 0
1.52709 648.507 648.507 2 1 0
1.52775 648.282 648.282 2 1 0
1.52842 648.058 648.058 2 1 0
1.5291 647.834 647.834 2 1 0
1.52977 647.61 647.61 2 1 0
1.53044 647.385 647.385 2 1 0
1.53112 647.161 647.161 2 1 0
1.5318 646.937 646.937 2 1 0
1.53247 646.712 646.712 2 1 0
1.53315 646.488 646.488 2 1 0
1.53383 646.264 646.264 2 1 0
1.53452 646.04 646.04 2 1 0
1.5352 645.815 645.815 2 1 0
1.53589 645.591 645.591 2 1 0
1.53657 645.367 645.367 2 1 0
1.53726 645.143 645.143 2 1 0
1.53795 644.918 644.918 2 1 0
1.53864 644.694 644.694 2 1 0
1.53933 644.47 644.47 2 1 0
1.54003 644.246 644.246 2 1 0
1.54072 644.021 644.021 2 1 0
1.54142 643.797 643.797 2 1 0
1.54211 643.573 643.573 2 1 0
1.54281 643.349 643.349 2 1 0
1.54351 643.124 643.124 2 1 0
1.54422 642.9 642.9 2 1 0
1.54492 642.676 642.676 2 1 0
1.54562 642.452 642.452 2 1 0
1.54633 642.228 642.228 2 1 0
1.54704 642.003 642.003 2 1 0
1.54774 641.779 641.779 2 1 0
1.54846 641.555 641.555 2 1 0
1.54917 641.331 641.331 2 1 0
1.54988 641.106 641.106 2 1 0
1.55059 640.882 640.882 2 1 0
1.55131 640.658 640.658 2 1 0
1.55203 640.434 640.434 2 1 0
1.55275 640.21 640.21 2 1 0
1.55347 639.985 639.985 2 1 0
1.55419 639.761 639.761 2 1 0
1.55491 639.537 639.537 2 1 0
1.55564 639.313 639.313 2 1 0
1.55636 639.089 639.089 2 1 0
1.55709 638.864 638.864 2 1 0
1.55782 638.64 638.64 2 1 0
1.55855 638.416 638.416 2 1 0
1.55928 638.192 638.192 2 1 0
1.56001 637.968 637.968 2 1 0
1.56075 637.744 637.744 2 1 0
1.56148 637.519 637.519 2 1 0
1.56222 637.295 637.295 2 1 0
1.56296 637.071 637.071 2 1 0
1.5637 636.847 636.847 2 1 0
1.56444 636.623 636.623 2 1 0
1.56519 636.399 636.399 2 1 0
1.56593 636.175 636.175 2 1 0
1.56668 635.95 635.95 2 1 0
1.56743 635.726 635.726 2 1 0
1.56818 635.502 635.502 2 1 0
1.56893 635.278 635.278 2 1 0
1.56968 635.054 635.054 2 1 0
1.57044 634.83 634.83 2 1 0
1.57119 634.606 634.606 2 1 0
1.57195 634.382 634.382 2 1 0
1.57271 634.157 634.157 2 1 0
1.57347 633.933 633.933 2 1 0
1.57423 633.709 633.709 2 1 0
1.57499 633.485 633.485 2 1 0
1.57576 633.261 633.261 2 1 0
1.57653 633.037 633.037 2 1 0
1.57729 632.813 632.813 2 1 0
1.57806 632.589 632.589 2 1 0
1.57883 632.365 632.365 2 1 0
1.57961 632.141 632.141 2 1 0
1.58038 631.916 631.916 2 1 0
1.58116 631.692 631.692 2 1 0
1.58193 631.468 631.468 2 1 0
1.58271 631.244 631.244 2 1 0
1.58349 631.02 631.02 2 1 0
1.58427 630.796 630.796 2 1 0
1.58506 630.572 630.572 2 1 0
1.58584 630.348 630.348 2 1 0
1.58663 630.124 630.124 2 1 0
1.58742 629.9 629.9 2 1 0
1.58821 629.676 629.676 2 1 0
1.589 629.452 629.452 2 1 0
1.58979 629.228 629.228 2 1 0
1.59059 629.004 629.004 2 1 0
1.59138 628.78 628.78 2 1 0
1.59218 628.556 628.556 2 1 0
1.59298 628.332 628.332 2 1 0
1.59378 628.108 628.108 2 1 0
1.59459 627.884 627.884 2 1 0
1.59539 627.66 627.66 2 1 0
1.5962 627.436 627.436 2 1 0
1.597 627.212 627.212 2 1 0
1.59781 626.988 626.988 2 1 0
1.59862 626.764 626.764 2 1 0
1.59944 626.54 626.54 2 1 0
1.60025 626.316 626.316 2 1 0
1.60107 626.092 626.092 2 1 0
1.60189 625.868 625.868 2 1 0
1.6027 625.644 625.644 2 1 0
1.60353 625.42 625.42 2 1 0
1.60435 625.196 625.196 2 1 0
1.60517 624.972 624.972 2 1 0
1.606 624.748 624.748 2 1 0
1.60683 624.524 624.524 2 1 0
1.60765 624.3 624.3 2 1 0
1.60849 624.076 624.076 2 1 0
1.60932 623.852 623.852 2 1 0
1.61015 623.628 623.628 2 1 0
1.61099 623.404 623.404 2 1 0
1.61183 623.181 623.181 2 1 0
1.61267 622.957 622.957 2 1 0
1.61351 622.733 622.733 2 1 0
1.61435 622.509 622.509 2 1 0
1.61519 622.285 622.285 2 1 0
1.61604 622.061 622.061 2 1 0
1.61689 621.837 621.837 2 1 0
1.61774 621.613 621.613 2 1 0
1.61859 621.389 621.389 2 1 0
1.61944 621.165 621.165 2 1 0
1.6203 620.942 620.942 2 1 0
1.62115 620.718 620.718 2 1 0
1.62201 620.494 620.494 2 1 0
1.62287 620.27 620.27 2 1 0
1.62373 620.046 620.046 2 1 0
1.6246 619.822 619.822 2 1 0
1.62546 619.598 619.598 2 1 0
1.62633 619.375 619.375 2 1 0
1.6272 619.151 619.151 2 1 0
1.62807 618.927 618.927 2 1 0
1.62894 618.703 618.703 2 1 0
1.62982 618.479 618.479 2 1 0
1.63069 618.255 618.255 2 1 0
1.63157 618.032 618.032 2 1 0
1.63245 617.808 617.808 2 1 0
1.63333 617.584 617.584 2 1 0
1.63421 617.36 617.36 2 1 0
1.6351 617.136 617.136 2 1 0
1.63599 616.913 616.913 2 1 0
1.63687 616.689 616.689 2 1 0
1.63777 616.465 616.465 2 1 0
1.63866 616.241 616.241 2 1 0
1.63955 616.017 616.017 2 1 0
1.64045 615.794 615.794 2 1 0
1.64135 615.57 615.57 2 1 0
1.64224 615.346 615.346 2 1 0
1.64315 615.122 615.122 2 1 0
1.64405 614.899 614.899 2 1 0
1.64495 614.675 614.675 2 1 0
1.64586 614.451 614.451 2 1 0
1.64677 614.227 614.227 2 1 0
1.64768 614.004 614.004 2 1 0
1.64859 613.78 613.78 2 1 0
1.64951 613.556 613.556 2 1 0
1.65042 613.333 613.333 2 1 0
1.65134 613.109 613.109 2 1 0
1.65226 612.885 612.885 2 1 0
1.65318 612.661 612.661 2 1 0
1.65411 612.438 612.438 2 1 0
1.65503 612.214 612.214 2 1 0
1.65596 611.99 611.99 2 1 0
1.65689 611.767 611.767 2 1 0
1.65782 611.543 611.543 2 1 0
1.65876 611.319 611.319 2 1 0
1.65969 611.096 611.096 2 1 0
1.66063 610.872 610.872 2 1 0
1.66157 610.648 610.648 2 1 0
1.66251 610.425 610.425 2 1 0
1.66345 610.201 610.201 2 1 0
1.6644 609.977 609.977 2 1 0
1.66534 609.754 609.754 2 1 0
1.66629 609.53 609.53 2 1 0
1.66724 609.306 609.306 2 1 0
1.6682 609.083 609.083 2 1 0
1.66915 608.859 608.859 2 1 0
1.67011 608.636 608.636 2 1 0
1.67107 608.412 608.412 2 1 0
1.67203 608.188 608.188 2 1 0
1.67299 607.965 607.965 2 1 0
1.67396 607.741 607.741 2 1 0
1.67492 607.518 607.518 2 1 0
1.67589 607.294 607.294 2 1 0
1.67686 607.07 607.07 2 1 0
1.67783 606.847 606.847 2 1 0
1.67881 606.623 606.623 2 1 0
1.67979 606.4 606.4 2 1 0
1.68076 606.176 606.176 2 1 0
1.68175 605.953 605.953 2 1 0
1.68273 605.729 605.729 2 1 0
1.68371 605.505 605.505 2 1 0
1.6847 605.282 605.282 2 1 0
1.68569 605.058 605.058 2 1 0
1.68668 604.835 604.835 2 1 0
1.68767 604.611 604.611 2 1 0
1.68867 604.388 604.388 2 1 0
1.68967 604.164 604.164 2 1 0
1.69066 603.941 603.941 2 1 0
1.69167 603.717 603.717 2 1 0
1.69267 603.494 603.494 2 1 0
1.69367 603.27 603.27 2 1 0
1.69468 603.047 603.047 2 1 0
1.69569 602.823 602.823 2 1 0
1.6967 602.6 602.6 2 1 0
1.69772 602.376 602.376 2 1 0
1.69873 602.153 602.153 2 1 0
1.69975 601.929 601.929 2 1 0
1.70077 601.706 601.706 2 1 0
1.7018 601.482 601.482 2 1 0
1.70282 601.259 601.259 2 1 0
1.70385 601.035 601.035 2 1 0
1.70488 600.812 600.812 2 1 0
1.70591 600.588 600.588 2 1 0
1.70694 600.365 600.365 2 1 0
1.70798 600.141 600.141 2 1 0
1.70901 599.918 599.918 2 1 0
1.71005 599.694 599.694 2 1 0
1.71109 599.471 599.471 2 1 0
1.71214 599.248 599.248 2 1 0
1.71318 599.024 599.024 2 1 0
1.71423 598.801 598.801 2 1 0
1.71528 598.577 598.577 2 1 0
1.71634 598.354 598.354 2 1 0
1.71739 598.13 598.13 2 1 0
1.71845 597.907 597.907 2 1 0
1.71951 597.684 597.684 2 1 0
1.72057 597.46 597.46 2 1 0
1.72163 597.237 597.237 2 1 0
1.7227 597.013 597.013 2 1 0
1.72377 596.79 596.79 2 1 0
1.72484 596.567 596.567 2 1 0
1.72591 596.343 596.343 2 1 0
1.72699 596.12 596.12 2 1 0
1.72807 595.896 595.896 2 1 0
1.72914 595.673 595.673 2 1 0
1.73023 595.45 595.45 2 1 0
1.73131 595.226 595.226 2 1 0
1.7324 595.003 595.003 2 1 0
1.73349 594.779 594.779 2 1 0
1.73458 594.556 594.556 2 1 0
1.73567 594.333 594.333 2 1 0
1.73677 594.109 594.109 2 1 0
1.73787 593.886 593.886 2 1 0
1.73897 593.663 593.663 2 1 0
1.74007 593.439 593.439 2 1 0
1.74117 593.216 593.216 2 1 0
1.74228 592.992 592.992 2 1 0
1.74339 592.769 592.769 2 1 0
1.7445 592.546 592.546 2 1 0
1.74562 592.322 592.322 2 1 0
1.74674 592.099 592.099 2 1 0
1.74786 591.876 591.876 2 1 0
1.74898 591.652 591.652 2 1 0
1.7501 591.429 591.429 2 1 0
1.75123 591.206 591.206 2 1 0
1.75236 590.982 590.982 2 1 0
1.75349 590.759 590.759 2 1 0
1.75462 590.536 590.536 2 1 0
1.75576 590.312 590.312 2 1 0
1.7569 590.089 590.089 2 1 0
1.75804 589.866 589.866 2 1 0
1.75918 589.642 589.642 2 1 0
1.76033 589.419 589.419 2 1 0
1.76148 589.196 589.196 2 1 0
1.76263 588.972 588.972 2 1 0
1.76378 588.749 588.749 2 1 0
1.76494 588.526 588.526 2 1 0
1.76609 588.302 588.302 2 1 0
1.76725 588.079 588.079 2 1 0
1.76842 587.856 587.856 2 1 0
1.76958 587.632 587.632 2 1 0
1.77075 587.409 587.409 2 1 0
1.77192 587.186 587.186 2 1 0
1.7731 586.962 586.962 2 1 0
1.77427 586.739 586.739 2 1 0
1.77545 586.516 586.516 2 1 0
1.77663 586.292 586.292 2 1 0
1.77781 586.069 586.069 2 1 0
1.779 585.846 585.846 2 1 0
1.78019 585.622 585.622 2 1 0
1.78138 585.399 585.399 2 1 0
1.78257 585.176 585.176 2 1 0
1.78377 584.952 584.952 2 1 0
1.78497 584.729 584.729 2 1 0
1.78617 584.506 584.506 2 1 0
1.78738 584.282 584.282 2 1 0
1.78858 584.059 584.059 2 1 0
1.78979 583.836 583.836 2 1 0
1.791 583.612 583.612 2 1 0
1.79222 583.389 583.389 2 1 0
1.79344 583.166 583.166 2 1 0
1.79465 582.942 582.942 2 1 0
1.79588 582.719 582.719 2 1 0
1.7971 582.496 582.496 2 1 0
1.79833 582.272 582.272 2 1 0
1.79956 582.049 582.049 2 1 0
1.80079 581.826 581.826 2 1 0
1.80203 581.602 581.602 2 1 0
1.80327 581.379 581.379 2 1 0
1.80451 581.156 581.156 2 1 0
1.80575 580.932 580.932 2 1 0
1.807 580.709 580.709 2 1 0
1.80825 580.486 580.486 2 1 0
1.8095 580.262 580.262 2 1 0
1.81076 580.039 580.039 2 1 0
1.81202 579.816 579.816 2 1 0
1.81328 579.592 579.592 2 1 0
1.81454 579.369 579.369 2 1 0
1.81581 579.145 579.145 2 1 0
1.81707 578.922 578.922 2 1 0
1.81835 578.699 578.699 2 1 0
1.81962 578.475 578.475 2 1 0
1.8209 578.252 578.252 2 1 0
1.82218 578.029 578.029 2 1 0
1.82346 577.805 577.805 2 1 0
1.82475 577.582 577.582 2 1 0
1.82604 577.358 577.358 2 1 0
1.82733 577.135 577.135 2 1 0
1.82862 576.911 576.911 2 1 0
1.82992 576.688 576.688 2 1 0
1.83122 576.465 576.465 2 1 0
1.83252 576.241 576.241 2 1 0
1.83383 576.018 576.018 2 1 0
1.83514 575.794 575.794 2 1 0
1.83645 575.571 575.571 2 1 0
1.83776 575.347 575.347 2 1 0
1.83908 575.124 575.124 2 1 0
1.8404 574.9 574.9 2 1 0
1.84172 574.677 574.677 2 1 0
1.84305 574.453 574.453 2 1 0
1.84438 574.23 574.23 2 1 0
1.84571 574.006 574.006 2 1 0
1.84705 573.783 573.783 2 1 0
1.84839 573.559 573.559 2 1 0
1.84973 573.336 573.336 2 1 0
1.85107 573.112 573.112 2 1 0
1.85242 572.889 572.889 2 1 0
1.85377 572.665 572.665 2 1 0
1.85512 572.442 572.442 2 1 0
1.85648 572.218 572.218 2 1 0
1.85784 571.995 571.995 2 1 0
1.8592 571.771 571.771 2 1 0
1.86057 571.548 571.548 2 1 0
1.86193 571.324 571.324 2 1 0
1.86331 571.1 571.1 2 1 0
1.86468 570.877 570.877 2 1 0
1.86606 570.653 570.653 2 1 0
1.86744 570.429 570.429 2 1 0
1.86882 570.206 570.206 2 1 0
1.87021 569.982 569.982 2 1 0
1.8716 569.759 569.759 2 1 0
1.873 569.535 569.535 2 1 0
1.87439 569.311 569.311 2 1 0
1.87579 569.088 569.088 2 1 0
1.8772 568.864 568.864 2 1 0
1.8786 568.64 568.64 2 1 0
1.88001 568.416 568.416 2 1 0
1.88143 568.193 568.193 2 1 0
1.88284 567.969 567.969 2 1 0
1.88426 567.745 567.745 2 1 0
1.88568 567.521 567.521 2 1 0
1.88711 567.298 567.298 2 1 0
1.88854 567.074 567.074 2 1 0
1.88997 566.85 566.85 2 1 0
1.89141 566.626 566.626 2 1 0
1.89285 566.402 566.402 2 1 0
1.89429 566.179 566.179 2 1 0
1.89573 565.955 565.955 2 1 0
