1.23508 146.904 146.904 1 1 0
1.23506 146.837 146.837 1 1 0
1.23504 146.769 146.769 1 1 0
1.23503 146.701 146.701 1 1 0
1.23501 146.633 146.633 1 1 0
1.23499 146.566 146.566 1 1 0
1.23498 146.498 146.498 1 1 0
1.23496 146.43 146.43 1 1 0
1.23495 146.362 146.362 1 1 0
1.23493 146.295 146.295 1 1 0
1.23492 146.227 146.227 1 1 0
1.2349 146.159 146.159 1 1 0
1.23489 146.091 146.091 1 1 0
1.23487 146.024 146.024 1 1 0
1.23486 145.956 145.956 1 1 0
1.23484 145.888 145.888 1 1 0
1.23483 145.82 145.82 1 1 0
1.23481 145.753 145.753 1 1 0
1.2348 145.685 145.685 1 1 0
1.23479 145.617 145.617 1 1 0
1.23477 145.549 145.549 1 1 0
1.23476 145.482 145.482 1 1 0
1.23475 145.414 145.414 1 1 0
1.23473 145.346 145.346 1 1 0
1.23472 145.278 145.278 1 1 0
1.23471 145.211 145.211 1 1 0
1.2347 145.143 145.143 1 1 0
1.23469 145.075 145.075 1 1 0
1.23467 145.007 145.007 1 1 0
1.23466 144.94 144.94 1 1 0
1.23465 144.872 144.872 1 1 0
1.23464 144.804 144.804 1 1 0
1.23463 144.736 144.736 1 1 0
1.23462 144.669 144.669 1 1 0
1.23461 144.601 144.601 1 1 0
1.2346 144.533 144.533 1 1 0
1.23459 144.465 144.465 1 1 0
1.23458 144.397 144.397 1 1 0
1.23457 144.33 144.33 1 1 0
1.23456 144.262 144.262 1 1 0
1.23455 144.194 144.194 1 1 0
1.23454 144.126 144.126 1 1 0
1.23453 144.059 144.059 1 1 0
1.23452 143.991 143.991 1 1 0
1.23451 143.923 143.923 1 1 0
1.2345 143.855 143.855 1 1 0
1.23449 143.787 143.787 1 1 0
1.23449 143.72 143.72 1 1 0
1.23448 143.652 143.652 1 1 0
1.23447 143.584 143.584 1 1 0
1.23446 143.516 143.516 1 1 0
1.23445 143.448 143.448 1 1 0
1.23445 143.381 143.381 1 1 0
1.23444 143.313 143.313 1 1 0
1.23443 143.245 143.245 1 1 0
1.23443 143.177 143.177 1 1 0
1.23442 143.11 143.11 1 1 0
1.23441 143.042 143.042 1 1 0
1.23441 142.974 142.974 1 1 0
1.2344 142.906 142.906 1 1 0
1.2344 142.838 142.838 1 1 0
1.23439 142.771 142.771 1 1 0
1.23439 142.703 142.703 1 1 0
1.23438 142.635 142.635 1 1 0
1.23438 142.567 142.567 1 1 0
1.23437 142.499 142.499 1 1 0
1.23437 142.432 142.432 1 1 0
1.23436 142.364 142.364 1 1 0
1.23436 142.296 142.296 1 1 0
1.23436 142.228 142.228 1 1 0
1.23435 142.16 142.16 1 1 0
1.23435 142.092 142.092 1 1 0
1.23435 142.025 142.025 1 1 0
1.23434 141.957 141.957 1 1 0
1.23434 141.889 141.889 1 1 0
1.23434 141.821 141.821 1 1 0
1.23434 141.753 141.753 1 1 0
1.23433 141.686 141.686 1 1 0
1.23433 141.618 141.618 1 1 0
1.23433 141.55 141.55 1 1 0
1.23433 141.482 141.482 1 1 0
1.23433 141.414 141.414 1 1 0
1.23433 141.347 141.347 1 1 0
1.23432 141.279 141.279 1 1 0
1.23432 141.211 141.211 1 1 0
1.23432 141.143 141.143 1 1 0
1.23432 141.075 141.075 1 1 0
1.23432 141.007 141.007 1 1 0
1.23432 140.983 140.983 1 1 0
1.23432 140.916 140.916 2 1 0
1.23432 140.848 140.848 2 1 0
1.23432 140.78 140.78 2 1 0
1.23432 140.712 140.712 2 1 0
1.23432 140.644 140.644 2 1 0
1.23433 140.576 140.576 2 1 0
1.23433 140.509 140.509 2 1 0
1.23433 140.441 140.441 2 1 0
1.23433 140.373 140.373 2 1 0
1.23433 140.305 140.305 2 1 0
1.23433 140.237 140.237 2 1 0
1.23434 140.169 140.169 2 1 0
1.23434 140.102 140.102 2 1 0
1.23434 140.034 140.034 2 1 0
1.23435 139.966 139.966 2 1 0
1.23435 139.898 139.898 2 1 0
1.23435 139.83 139.83 2 1 0
1.23436 139.762 139.762 2 1 0
1.23436 139.695 139.695 2 1 0
1.23436 139.627 139.627 2 1 0
1.23437 139.559 139.559 2 1 0
1.23437 139.491 139.491 2 1 0
1.23438 139.423 139.423 2 1 0
1.23438 139.355 139.355 2 1 0
1.23439 139.288 139.288 2 1 0
1.23439 139.22 139.22 2 1 0
1.2344 139.152 139.152 2 1 0
1.2344 139.084 139.084 2 1 0
1.23441 139.016 139.016 2 1 0
1.23441 138.948 138.948 2 1 0
1.23442 138.881 138.881 2 1 0
1.23443 138.813 138.813 2 1 0
1.23443 138.745 138.745 2 1 0
1.23444 138.677 138.677 2 1 0
1.23445 138.609 138.609 2 1 0
1.23445 138.541 138.541 2 1 0
1.23446 138.474 138.474 2 1 0
1.23447 138.406 138.406 2 1 0
1.23448 138.338 138.338 2 1 0
1.23449 138.27 138.27 2 1 0
1.23449 138.202 138.202 2 1 0
1.2345 138.134 138.134 2 1 0
1.23451 138.066 138.066 2 1 0
1.23452 137.999 137.999 2 1 0
1.23453 137.931 137.931 2 1 0
1.23454 137.863 137.863 2 1 0
1.23455 137.795 137.795 2 1 0
1.23456 137.727 137.727 2 1 0
1.23457 137.659 137.659 2 1 0
1.23458 137.592 137.592 2 1 0
1.23459 137.524 137.524 2 1 0
1.2346 137.456 137.456 2 1 0
1.23461 137.388 137.388 2 1 0
1.23462 137.32 137.32 2 1 0
1.23463 137.252 137.252 2 1 0
1.23464 137.184 137.184 2 1 0
1.23466 137.117 137.117 2 1 0
1.23467 137.049 137.049 2 1 0
1.23468 136.981 136.981 2 1 0
1.23469 136.913 136.913 2 1 0
1.2347 136.845 136.845 2 1 0
1.23472 136.777 136.777 2 1 0
1.23473 136.709 136.709 2 1 0
1.23474 136.642 136.642 2 1 0
1.23476 136.574 136.574 2 1 0
1.23477 136.506 136.506 2 1 0
1.23478 136.438 136.438 2 1 0
1.2348 136.37 136.37 2 1 0
1.23481 136.302 136.302 2 1 0
1.23483 136.235 136.235 2 1 0
1.23484 136.167 136.167 2 1 0
1.23486 136.099 136.099 2 1 0
1.23487 136.031 136.031 2 1 0
1.23489 135.963 135.963 2 1 0
1.2349 135.895 135.895 2 1 0
1.23492 135.827 135.827 2 1 0
1.23493 135.76 135.76 2 1 0
1.23495 135.692 135.692 2 1 0
1.23497 135.624 135.624 2 1 0
1.23498 135.556 135.556 2 1 0
1.235 135.488 135.488 2 1 0
1.23502 135.42 135.42 2 1 0
1.23503 135.352 135.352 2 1 0
1.23505 135.285 135.285 2 1 0
1.23507 135.217 135.217 2 1 0
1.23509 135.149 135.149 2 1 0
1.2351 135.081 135.081 2 1 0
1.23512 135.013 135.013 2 1 0
1.23514 134.945 134.945 2 1 0
1.23516 134.877 134.877 2 1 0
1.23518 134.81 134.81 2 1 0
1.2352 134.742 134.742 2 1 0
1.23522 134.674 134.674 2 1 0
1.23524 134.606 134.606 2 1 0
1.23526 134.538 134.538 2 1 0
1.23528 134.47 134.47 2 1 0
1.2353 134.402 134.402 2 1 0
1.23532 134.335 134.335 2 1 0
1.23534 134.267 134.267 2 1 0
1.23536 134.199 134.199 2 1 0
1.23538 134.131 134.131 2 1 0
1.2354 134.063 134.063 2 1 0
1.23542 133.995 133.995 2 1 0
1.23545 133.927 133.927 2 1 0
1.23547 133.86 133.86 2 1 0
1.23549 133.792 133.792 2 1 0
1.23551 133.724 133.724 2 1 0
1.23554 133.656 133.656 2 1 0
1.23556 133.588 133.588 2 1 0
1.23558 133.52 133.52 2 1 0
1.2356 133.453 133.453 2 1 0
1.23563 133.385 133.385 2 1 0
1.23565 133.317 133.317 2 1 0
1.23568 133.249 133.249 2 1 0
1.2357 133.181 133.181 2 1 0
1.23572 133.113 133.113 2 1 0
1.23575 133.045 133.045 2 1 0
1.23577 132.978 132.978 2 1 0
1.2358 132.91 132.91 2 1 0
1.23582 132.842 132.842 2 1 0
1.23585 132.774 132.774 2 1 0
1.23588 132.706 132.706 2 1 0
1.2359 132.638 132.638 2 1 0
1.23593 132.57 132.57 2 1 0
1.23595 132.503 132.503 2 1 0
1.23598 132.435 132.435 2 1 0
1.23601 132.367 132.367 2 1 0
1.23604 132.299 132.299 2 1 0
1.23606 132.231 132.231 2 1 0
1.23609 132.163 132.163 2 1 0
1.23612 132.096 132.096 2 1 0
1.23615 132.028 132.028 2 1 0
1.23617 131.96 131.96 2 1 0
1.2362 131.892 131.892 2 1 0
1.23623 131.824 131.824 2 1 0
1.23626 131.756 131.756 2 1 0
1.23629 131.688 131.688 2 1 0
1.23632 131.621 131.621 2 1 0
1.23635 131.553 131.553 2 1 0
1.23638 131.485 131.485 2 1 0
1.23641 131.417 131.417 2 1 0
1.23644 131.349 131.349 2 1 0
1.23647 131.281 131.281 2 1 0
1.2365 131.214 131.214 2 1 0
1.23653 131.146 131.146 2 1 0
1.23656 131.078 131.078 2 1 0
1.23659 131.01 131.01 2 1 0
1.23663 130.942 130.942 2 1 0
1.23666 130.874 130.874 2 1 0
1.23669 130.807 130.807 2 1 0
1.23672 130.739 130.739 2 1 0
1.23676 130.671 130.671 2 1 0
1.23679 130.603 130.603 2 1 0
1.23682 130.535 130.535 2 1 0
1.23685 130.467 130.467 2 1 0
1.23689 130.4 130.4 2 1 0
1.23692 130.332 130.332 2 1 0
1.23696 130.264 130.264 2 1 0
1.23699 130.196 130.196 2 1 0
1.23702 130.128 130.128 2 1 0
1.23706 130.06 130.06 2 1 0
1.23709 129.993 129.993 2 1 0
1.23713 129.925 129.925 2 1 0
1.23716 129.857 129.857 2 1 0
1.2372 129.789 129.789 2 1 0
1.23724 129.721 129.721 2 1 0
1.23727 129.653 129.653 2 1 0
1.23731 129.586 129.586 2 1 0
1.23734 129.518 129.518 2 1 0
1.23738 129.45 129.45 2 1 0
1.23742 129.382 129.382 2 1 0
1.23746 129.314 129.314 2 1 0
1.23749 129.247 129.247 2 1 0
1.23753 129.179 129.179 2 1 0
1.23757 129.111 129.111 2 1 0
1.23761 129.043 129.043 2 1 0
1.23764 128.975 128.975 2 1 0
1.23768 128.907 128.907 2 1 0
1.23772 128.84 128.84 2 1 0
1.23776 128.772 128.772 2 1 0
1.2378 128.704 128.704 2 1 0
1.23784 128.636 128.636 2 1 0
1.23788 128.568 128.568 2 1 0
1.23792 128.501 128.501 2 1 0
1.23796 128.433 128.433 2 1 0
1.238 128.365 128.365 2 1 0
1.23804 128.297 128.297 2 1 0
1.23808 128.229 128.229 2 1 0
1.23812 128.161 128.161 2 1 0
1.23817 128.094 128.094 2 1 0
1.23821 128.026 128.026 2 1 0
1.23825 127.958 127.958 2 1 0
1.23829 127.89 127.89 2 1 0
1.23833 127.822 127.822 2 1 0
1.23838 127.755 127.755 2 1 0
1.23842 127.687 127.687 2 1 0
1.23846 127.619 127.619 2 1 0
1.23851 127.551 127.551 2 1 0
1.23855 127.483 127.483 2 1 0
1.23859 127.416 127.416 2 1 0
1.23864 127.348 127.348 2 1 0
1.23868 127.28 127.28 2 1 0
1.23873 127.212 127.212 2 1 0
1.23877 127.144 127.144 2 1 0
1.23882 127.077 127.077 2 1 0
1.23886 127.009 127.009 2 1 0
1.23891 126.941 126.941 2 1 0
1.23895 126.873 126.873 2 1 0
1.239 126.805 126.805 2 1 0
1.23905 126.738 126.738 2 1 0
1.23909 126.67 126.67 2 1 0
1.23914 126.602 126.602 2 1 0
1.23919 126.534 126.534 2 1 0
1.23923 126.467 126.467 2 1 0
1.23928 126.399 126.399 2 1 0
1.23933 126.331 126.331 2 1 0
1.23938 126.263 126.263 2 1 0
1.23942 126.195 126.195 2 1 0
1.23947 126.128 126.128 2 1 0
1.23952 126.06 126.06 2 1 0
1.23957 125.992 125.992 2 1 0
1.23962 125.924 125.924 2 1 0
1.23967 125.857 125.857 2 1 0
1.23972 125.789 125.789 2 1 0
1.23977 125.721 125.721 2 1 0
1.23982 125.653 125.653 2 1 0
1.23987 125.585 125.585 2 1 0
1.23992 125.518 125.518 2 1 0
1.23997 125.45 125.45 2 1 0
1.24002 125.382 125.382 2 1 0
1.24007 125.314 125.314 2 1 0
1.24013 125.247 125.247 2 1 0
1.24018 125.179 125.179 2 1 0
1.24023 125.111 125.111 2 1 0
1.24028 125.043 125.043 2 1 0
1.24033 124.976 124.976 2 1 0
1.24039 124.908 124.908 2 1 0
1.24044 124.84 124.84 2 1 0
1.24049 124.772 124.772 2 1 0
1.24055 124.705 124.705 2 1 0
1.2406 124.637 124.637 2 1 0
1.24066 124.569 124.569 2 1 0
1.24071 124.501 124.501 2 1 0
1.24076 124.434 124.434 2 1 0
1.24082 124.366 124.366 2 1 0
1.24087 124.298 124.298 2 1 0
1.24093 124.23 124.23 2 1 0
1.24099 124.163 124.163 2 1 0
1.24104 124.095 124.095 2 1 0
1.2411 124.027 124.027 2 1 0
1.24115 123.959 123.959 2 1 0
1.24121 123.892 123.892 2 1 0
1.24127 123.824 123.824 2 1 0
1.24133 123.756 123.756 2 1 0
1.24138 123.688 123.688 2 1 0
1.24144 123.621 123.621 2 1 0
1.2415 123.553 123.553 2 1 0
1.24156 123.485 123.485 2 1 0
1.24162 123.418 123.418 2 1 0
1.24167 123.35 123.35 2 1 0
1.24173 123.282 123.282 2 1 0
1.24179 123.214 123.214 2 1 0
1.24185 123.147 123.147 2 1 0
1.24191 123.079 123.079 2 1 0
1.24197 123.011 123.011 2 1 0
1.24203 122.943 122.943 2 1 0
1.24209 122.876 122.876 2 1 0
1.24215 122.808 122.808 2 1 0
1.24221 122.74 122.74 2 1 0
1.24228 122.673 122.673 2 1 0
1.24234 122.605 122.605 2 1 0
1.2424 122.537 122.537 2 1 0
1.24246 122.47 122.47 2 1 0
1.24252 122.402 122.402 2 1 0
1.24259 122.334 122.334 2 1 0
1.24265 122.266 122.266 2 1 0
1.24271 122.199 122.199 2 1 0
1.24277 122.131 122.131 2 1 0
1.24284 122.063 122.063 2 1 0
1.2429 121.996 121.996 2 1 0
1.24297 121.928 121.928 2 1 0
1.24303 121.86 121.86 2 1 0
1.2431 121.793 121.793 2 1 0
1.24316 121.725 121.725 2 1 0
1.24323 121.657 121.657 2 1 0
1.24329 121.59 121.59 2 1 0
1.24336 121.522 121.522 2 1 0
1.24342 121.454 121.454 2 1 0
1.24349 121.386 121.386 2 1 0
1.24356 121.319 121.319 2 1 0
1.24362 121.251 121.251 2 1 0
1.24369 121.183 121.183 2 1 0
1.24376 121.116 121.116 2 1 0
1.24382 121.048 121.048 2 1 0
1.24389 120.98 120.98 2 1 0
1.24396 120.913 120.913 2 1 0
1.24403 120.845 120.845 2 1 0
1.2441 120.777 120.777 2 1 0
1.24417 120.71 120.71 2 1 0
1.24424 120.642 120.642 2 1 0
1.2443 120.574 120.574 2 1 0
1.24437 120.507 120.507 2 1 0
1.24444 120.439 120.439 2 1 0
1.24451 120.372 120.372 2 1 0
1.24458 120.304 120.304 2 1 0
1.24466 120.236 120.236 2 1 0
1.24473 120.169 120.169 2 1 0
1.2448 120.101 120.101 2 1 0
1.24487 120.033 120.033 2 1 0
1.24494 119.966 119.966 2 1 0
1.24501 119.898 119.898 2 1 0
1.24509 119.83 119.83 2 1 0
1.24516 119.763 119.763 2 1 0
1.24523 119.695 119.695 2 1 0
1.2453 119.627 119.627 2 1 0
1.24538 119.56 119.56 2 1 0
1.24545 119.492 119.492 2 1 0
1.24553 119.425 119.425 2 1 0
1.2456 119.357 119.357 2 1 0
1.24567 119.289 119.289 2 1 0
1.24575 119.222 119.222 2 1 0
1.24582 119.154 119.154 2 1 0
1.2459 119.087 119.087 2 1 0
1.24598 119.019 119.019 2 1 0
1.24605 118.951 118.951 2 1 0
1.24613 118.884 118.884 2 1 0
1.2462 118.816 118.816 2 1 0
1.24628 118.748 118.748 2 1 0
1.24636 118.681 118.681 2 1 0
1.24644 118.613 118.613 2 1 0
1.24651 118.546 118.546 2 1 0
1.24659 118.478 118.478 2 1 0
1.24667 118.411 118.411 2 1 0
1.24675 118.343 118.343 2 1 0
1.24683 118.275 118.275 2 1 0
1.2469 118.208 118.208 2 1 0
1.24698 118.14 118.14 2 1 0
1.24706 118.073 118.073 2 1 0
1.24714 118.005 118.005 2 1 0
1.24722 117.937 117.937 2 1 0
1.2473 117.87 117.87 2 1 0
1.24738 117.802 117.802 2 1 0
1.24746 117.735 117.735 2 1 0
1.24755 117.667 117.667 2 1 0
1.24763 117.6 117.6 2 1 0
1.24771 117.532 117.532 2 1 0
1.24779 117.464 117.464 2 1 0
1.24787 117.397 117.397 2 1 0
1.24796 117.329 117.329 2 1 0
1.24804 117.262 117.262 2 1 0
1.24812 117.194 117.194 2 1 0
1.24821 117.127 117.127 2 1 0
1.24829 117.059 117.059 2 1 0
1.24837 116.992 116.992 2 1 0
1.24846 116.924 116.924 2 1 0
1.24854 116.856 116.856 2 1 0
1.24863 116.789 116.789 2 1 0
1.24871 116.721 116.721 2 1 0
1.2488 116.654 116.654 2 1 0
1.24888 116.586 116.586 2 1 0
1.24897 116.519 116.519 2 1 0
1.24906 116.451 116.451 2 1 0
1.24914 116.384 116.384 2 1 0
1.24923 116.316 116.316 2 1 0
1.24932 116.249 116.249 2 1 0
1.2494 116.181 116.181 2 1 0
1.24949 116.114 116.114 2 1 0
1.24958 116.046 116.046 2 1 0
1.24967 115.979 115.979 2 1 0
1.24976 115.911 115.911 2 1 0
1.24984 115.844 115.844 2 1 0
1.24993 115.776 115.776 2 1 0
1.25002 115.709 115.709 2 1 0
1.25011 115.641 115.641 2 1 0
1.2502 115.574 115.574 2 1 0
1.25029 115.506 115.506 2 1 0
1.25038 115.439 115.439 2 1 0
1.25047 115.371 115.371 2 1 0
1.25057 115.304 115.304 2 1 0
1.25066 115.236 115.236 2 1 0
1.25075 115.169 115.169 2 1 0
1.25084 115.101 115.101 2 1 0
1.25093 115.034 115.034 2 1 0
1.25103 114.966 114.966 2 1 0
1.25112 114.899 114.899 2 1 0
1.25121 114.831 114.831 2 1 0
1.25131 114.764 114.764 2 1 0
1.2514 114.696 114.696 2 1 0
1.25149 114.629 114.629 2 1 0
1.25159 114.562 114.562 2 1 0
1.25168 114.494 114.494 2 1 0
1.25178 114.427 114.427 2 1 0
1.25187 114.359 114.359 2 1 0
1.25197 114.292 114.292 2 1 0
1.25206 114.224 114.224 2 1 0
1.25216 114.157 114.157 2 1 0
1.25226 114.089 114.089 2 1 0
1.25235 114.022 114.022 2 1 0
1.25245 113.955 113.955 2 1 0
1.25255 113.887 113.887 2 1 0
1.25265 113.82 113.82 2 1 0
1.25274 113.752 113.752 2 1 0
1.25284 113.685 113.685 2 1 0
1.25294 113.617 113.617 2 1 0
1.25304 113.55 113.55 2 1 0
1.25314 113.483 113.483 2 1 0
1.25324 113.415 113.415 2 1 0
1.25334 113.348 113.348 2 1 0
1.25344 113.28 113.28 2 1 0
1.25354 113.213 113.213 2 1 0
1.25364 113.146 113.146 2 1 0
1.25374 113.078 113.078 2 1 0
1.25384 113.011 113.011 2 1 0
1.25394 112.943 112.943 2 1 0
1.25405 112.876 112.876 2 1 0
1.25415 112.809 112.809 2 1 0
1.25425 112.741 112.741 2 1 0
1.25435 112.674 112.674 2 1 0
1.25446 112.606 112.606 2 1 0
1.25456 112.539 112.539 2 1 0
1.25466 112.472 112.472 2 1 0
1.25477 112.404 112.404 2 1 0
1.25487 112.337 112.337 2 1 0
1.25498 112.27 112.27 2 1 0
1.25508 112.202 112.202 2 1 0
1.25519 112.135 112.135 2 1 0
1.25529 112.068 112.068 2 1 0
1.2554 112 112 2 1 0
1.2555 111.933 111.933 2 1 0
1.25561 111.866 111.866 2 1 0
1.25572 111.798 111.798 2 1 0
1.25582 111.731 111.731 2 1 0
1.25593 111.664 111.664 2 1 0
1.25604 111.596 111.596 2 1 0
1.25615 111.529 111.529 2 1 0
1.25626 111.462 111.462 2 1 0
1.25636 111.394 111.394 2 1 0
1.25647 111.327 111.327 2 1 0
1.25658 111.26 111.26 2 1 0
1.25669 111.192 111.192 2 1 0
1.2568 111.125 111.125 2 1 0
1.25691 111.058 111.058 2 1 0
1.25702 110.99 110.99 2 1 0
1.25713 110.923 110.923 2 1 0
1.25725 110.856 110.856 2 1 0
1.25736 110.788 110.788 2 1 0
1.25747 110.721 110.721 2 1 0
1.25758 110.654 110.654 2 1 0
1.25769 110.587 110.587 2 1 0
1.25781 110.519 110.519 2 1 0
1.25792 110.452 110.452 2 1 0
1.25803 110.385 110.385 2 1 0
1.25815 110.317 110.317 2 1 0
1.25826 110.25 110.25 2 1 0
1.25838 110.183 110.183 2 1 0
1.25849 110.116 110.116 2 1 0
1.25861 110.048 110.048 2 1 0
1.25872 109.981 109.981 2 1 0
1.25884 109.914 109.914 2 1 0
1.25895 109.847 109.847 2 1 0
1.25907 109.779 109.779 2 1 0
1.25919 109.712 109.712 2 1 0
1.2593 109.645 109.645 2 1 0
1.25942 109.578 109.578 2 1 0
1.25954 109.51 109.51 2 1 0
1.25965 109.443 109.443 2 1 0
1.25977 109.376 109.376 2 1 0
1.25989 109.309 109.309 2 1 0
1.26001 109.242 109.242 2 1 0
1.26013 109.174 109.174 2 1 0
1.26025 109.107 109.107 2 1 0
1.26037 109.04 109.04 2 1 0
1.26049 108.973 108.973 2 1 0
1.26061 108.906 108.906 2 1 0
1.26073 108.838 108.838 2 1 0
1.26085 108.771 108.771 2 1 0
1.26097 108.704 108.704 2 1 0
1.2611 108.637 108.637 2 1 0
1.26122 108.57 108.57 2 1 0
1.26134 108.502 108.502 2 1 0
1.26146 108.435 108.435 2 1 0
1.26159 108.368 108.368 2 1 0
1.26171 108.301 108.301 2 1 0
1.26183 108.234 108.234 2 1 0
1.26196 108.167 108.167 2 1 0
1.26208 108.099 108.099 2 1 0
1.26221 108.032 108.032 2 1 0
1.26233 107.965 107.965 2 1 0
1.26246 107.898 107.898 2 1 0
1.26258 107.831 107.831 2 1 0
1.26271 107.764 107.764 2 1 0
1.26284 107.696 107.696 2 1 0
1.26296 107.629 107.629 2 1 0
1.26309 107.562 107.562 2 1 0
1.26322 107.495 107.495 2 1 0
1.26335 107.428 107.428 2 1 0
1.26347 107.361 107.361 2 1 0
1.2636 107.294 107.294 2 1 0
1.26373 107.227 107.227 2 1 0
1.26386 107.159 107.159 2 1 0
1.26399 107.092 107.092 2 1 0
1.26412 107.025 107.025 2 1 0
1.26425 106.958 106.958 2 1 0
1.26438 106.891 106.891 2 1 0
1.26451 106.824 106.824 2 1 0
1.26464 106.757 106.757 2 1 0
1.26478 106.69 106.69 2 1 0
1.26491 106.623 106.623 2 1 0
1.26504 106.556 106.556 2 1 0
1.26517 106.489 106.489 2 1 0
1.26531 106.422 106.422 2 1 0
1.26544 106.354 106.354 2 1 0
1.26557 106.287 106.287 2 1 0
1.26571 106.22 106.22 2 1 0
1.26584 106.153 106.153 2 1 0
1.26598 106.086 106.086 2 1 0
1.26611 106.019 106.019 2 1 0
1.26625 105.952 105.952 2 1 0
1.26638 105.885 105.885 2 1 0
1.26652 105.818 105.818 2 1 0
1.26665 105.751 105.751 2 1 0
1.26679 105.684 105.684 2 1 0
1.26693 105.617 105.617 2 1 0
1.26707 105.55 105.55 2 1 0
1.2672 105.483 105.483 2 1 0
1.26734 105.416 105.416 2 1 0
1.26748 105.349 105.349 2 1 0
1.26762 105.282 105.282 2 1 0
1.26776 105.215 105.215 2 1 0
1.2679 105.148 105.148 2 1 0
1.26804 105.081 105.081 2 1 0
1.26818 105.014 105.014 2 1 0
1.26832 104.947 104.947 2 1 0
1.26846 104.88 104.88 2 1 0
1.2686 104.813 104.813 2 1 0
1.26874 104.746 104.746 2 1 0
1.26889 104.679 104.679 2 1 0
1.26903 104.612 104.612 2 1 0
1.26917 104.545 104.545 2 1 0
1.26931 104.478 104.478 2 1 0
1.26946 104.411 104.411 2 1 0
1.2696 104.344 104.344 2 1 0
1.26975 104.277 104.277 2 1 0
1.26989 104.21 104.21 2 1 0
1.27004 104.144 104.144 2 1 0
1.27018 104.077 104.077 2 1 0
1.27033 104.01 104.01 2 1 0
1.27047 103.943 103.943 2 1 0
1.27062 103.876 103.876 2 1 0
1.27077 103.809 103.809 2 1 0
1.27091 103.742 103.742 2 1 0
1.27106 103.675 103.675 2 1 0
1.27121 103.608 103.608 2 1 0
1.27136 103.541 103.541 2 1 0
1.2715 103.474 103.474 2 1 0
1.27165 103.407 103.407 2 1 0
1.2718 103.341 103.341 2 1 0
1.27195 103.274 103.274 2 1 0
1.2721 103.207 103.207 2 1 0
1.27225 103.14 103.14 2 1 0
1.2724 103.073 103.073 2 1 0
1.27256 103.006 103.006 2 1 0
1.27271 102.939 102.939 2 1 0
1.27286 102.873 102.873 2 1 0
1.27301 102.806 102.806 2 1 0
1.27316 102.739 102.739 2 1 0
1.27332 102.672 102.672 2 1 0
1.27347 102.605 102.605 2 1 0
1.27362 102.538 102.538 2 1 0
1.27378 102.471 102.471 2 1 0
1.27393 102.405 102.405 2 1 0
1.27409 102.338 102.338 2 1 0
1.27424 102.271 102.271 2 1 0
1.2744 102.204 102.204 2 1 0
1.27455 102.137 102.137 2 1 0
1.27471 102.071 102.071 2 1 0
1.27487 102.004 102.004 2 1 0
1.27503 101.937 101.937 2 1 0
1.27518 101.87 101.87 2 1 0
1.27534 101.803 101.803 2 1 0
1.2755 101.737 101.737 2 1 0
1.27566 101.67 101.67 2 1 0
1.27582 101.603 101.603 2 1 0
1.27598 101.536 101.536 2 1 0
1.27614 101.47 101.47 2 1 0
1.2763 101.403 101.403 2 1 0
1.27646 101.336 101.336 2 1 0
1.27662 101.269 101.269 2 1 0
1.27678 101.203 101.203 2 1 0
1.27694 101.136 101.136 2 1 0
1.2771 101.069 101.069 2 1 0
1.27727 101.002 101.002 2 1 0
1.27743 100.936 100.936 2 1 0
1.27759 100.869 100.869 2 1 0
1.27776 100.802 100.802 2 1 0
1.27792 100.736 100.736 2 1 0
1.27808 100.669 100.669 2 1 0
1.27825 100.602 100.602 2 1 0
1.27841 100.535 100.535 2 1 0
1.27858 100.469 100.469 2 1 0
1.27875 100.402 100.402 2 1 0
1.27891 100.335 100.335 2 1 0
1.27908 100.269 100.269 2 1 0
1.27925 100.202 100.202 2 1 0
1.27941 100.135 100.135 2 1 0
1.27958 100.069 100.069 2 1 0
1.27975 100.002 100.002 2 1 0
1.27992 99.9353 99.9353 2 1 0
1.28009 99.8687 99.8687 2 1 0
1.28026 99.802 99.802 2 1 0
1.28043 99.7354 99.7354 2 1 0
1.2806 99.6688 99.6688 2 1 0
1.28077 99.6021 99.6021 2 1 0
1.28094 99.5355 99.5355 2 1 0
1.28111 99.4689 99.4689 2 1 0
1.28128 99.4023 99.4023 2 1 0
1.28146 99.3357 99.3357 2 1 0
1.28163 99.2691 99.2691 2 1 0
1.2818 99.2025 99.2025 2 1 0
1.28197 99.1359 99.1359 2 1 0
1.28215 99.0693 99.0693 2 1 0
1.28232 99.0027 99.0027 2 1 0
1.2825 98.9361 98.9361 2 1 0
1.28267 98.8695 98.8695 2 1 0
1.28285 98.8029 98.8029 2 1 0
1.28302 98.7364 98.7364 2 1 0
1.2832 98.6698 98.6698 2 1 0
1.28338 98.6033 98.6033 2 1 0
1.28355 98.5367 98.5367 2 1 0
1.28373 98.4702 98.4702 2 1 0
1.28391 98.4036 98.4036 2 1 0
1.28409 98.3371 98.3371 2 1 0
1.28427 98.2705 98.2705 2 1 0
1.28445 98.204 98.204 2 1 0
1.28463 98.1375 98.1375 2 1 0
1.28481 98.071 98.071 2 1 0
1.28499 98.0045 98.0045 2 1 0
1.28517 97.938 97.938 2 1 0
1.28535 97.8715 97.8715 2 1 0
1.28553 97.805 97.805 2 1 0
1.28571 97.7385 97.7385 2 1 0
1.28589 97.672 97.672 2 1 0
1.28608 97.6055 97.6055 2 1 0
1.28626 97.539 97.539 2 1 0
1.28644 97.4725 97.4725 2 1 0
1.28663 97.4061 97.4061 2 1 0
1.28681 97.3396 97.3396 2 1 0
1.287 97.2732 97.2732 2 1 0
1.28718 97.2067 97.2067 2 1 0
1.28737 97.1403 97.1403 2 1 0
1.28756 97.0738 97.0738 2 1 0
1.28774 97.0074 97.0074 2 1 0
1.28793 96.941 96.941 2 1 0
1.28812 96.8745 96.8745 2 1 0
1.28831 96.8081 96.8081 2 1 0
1.28849 96.7417 96.7417 2 1 0
1.28868 96.6753 96.6753 2 1 0
1.28887 96.6089 96.6089 2 1 0
1.28906 96.5425 96.5425 2 1 0
1.28925 96.4761 96.4761 2 1 0
1.28944 96.4097 96.4097 2 1 0
1.28963 96.3433 96.3433 2 1 0
1.28982 96.277 96.277 2 1 0
1.29002 96.2106 96.2106 2 1 0
1.29021 96.1442 96.1442 2 1 0
1.2904 96.0779 96.0779 2 1 0
1.29059 96.0115 96.0115 2 1 0
1.29079 95.9451 95.9451 2 1 0
1.29098 95.8788 95.8788 2 1 0
1.29118 95.8125 95.8125 2 1 0
1.29137 95.7461 95.7461 2 1 0
1.29157 95.6798 95.6798 2 1 0
1.29176 95.6135 95.6135 2 1 0
1.29196 95.5472 95.5472 2 1 0
1.29215 95.4809 95.4809 2 1 0
1.29235 95.4145 95.4145 2 1 0
1.29255 95.3482 95.3482 2 1 0
1.29275 95.282 95.282 2 1 0
1.29294 95.2157 95.2157 2 1 0
1.29314 95.1494 95.1494 2 1 0
1.29334 95.0831 95.0831 2 1 0
1.29354 95.0168 95.0168 2 1 0
1.29374 94.9506 94.9506 2 1 0
1.29394 94.8843 94.8843 2 1 0
1.29414 94.818 94.818 2 1 0
1.29435 94.7518 94.7518 2 1 0
1.29455 94.6855 94.6855 2 1 0
1.29475 94.6193 94.6193 2 1 0
1.29495 94.5531 94.5531 2 1 0
1.29516 94.4868 94.4868 2 1 0
1.29536 94.4206 94.4206 2 1 0
1.29556 94.3544 94.3544 2 1 0
1.29577 94.2882 94.2882 2 1 0
1.29597 94.222 94.222 2 1 0
1.29618 94.1558 94.1558 2 1 0
1.29638 94.0896 94.0896 2 1 0
1.29659 94.0234 94.0234 2 1 0
1.2968 93.9572 93.9572 2 1 0
1.297 93.8911 93.8911 2 1 0
1.29721 93.8249 93.8249 2 1 0
1.29742 93.7587 93.7587 2 1 0
1.29763 93.6926 93.6926 2 1 0
1.29784 93.6264 93.6264 2 1 0
1.29805 93.5603 93.5603 2 1 0
1.29826 93.4941 93.4941 2 1 0
1.29847 93.428 93.428 2 1 0
1.29868 93.3619 93.3619 2 1 0
1.29889 93.2957 93.2957 2 1 0
1.2991 93.2296 93.2296 2 1 0
1.29931 93.1635 93.1635 2 1 0
1.29953 93.0974 93.0974 2 1 0
1.29974 93.0313 93.0313 2 1 0
1.29995 92.9652 92.9652 2 1 0
1.30017 92.8991 92.8991 2 1 0
1.30038 92.833 92.833 2 1 0
1.3006 92.767 92.767 2 1 0
1.30081 92.7009 92.7009 2 1 0
1.30103 92.6348 92.6348 2 1 0
1.30124 92.5688 92.5688 2 1 0
1.30146 92.5027 92.5027 2 1 0
1.30168 92.4367 92.4367 2 1 0
1.3019 92.3706 92.3706 2 1 0
1.30211 92.3046 92.3046 2 1 0
1.30233 92.2386 92.2386 2 1 0
1.30255 92.1725 92.1725 2 1 0
1.30277 92.1065 92.1065 2 1 0
1.30299 92.0405 92.0405 2 1 0
1.30321 91.9745 91.9745 2 1 0
1.30343 91.9085 91.9085 2 1 0
1.30366 91.8425 91.8425 2 1 0
1.30388 91.7765 91.7765 2 1 0
1.3041 91.7106 91.7106 2 1 0
1.30432 91.6446 91.6446 2 1 0
1.30455 91.5786 91.5786 2 1 0
1.30477 91.5127 91.5127 2 1 0
1.305 91.4467 91.4467 2 1 0
1.30522 91.3808 91.3808 2 1 0
1.30545 91.3148 91.3148 2 1 0
1.30567 91.2489 91.2489 2 1 0
1.3059 91.183 91.183 2 1 0
1.30612 91.117 91.117 2 1 0
1.30635 91.0511 91.0511 2 1 0
1.30658 90.9852 90.9852 2 1 0
1.30681 90.9193 90.9193 2 1 0
1.30704 90.8534 90.8534 2 1 0
1.30727 90.7875 90.7875 2 1 0
1.3075 90.7216 90.7216 2 1 0
1.30773 90.6557 90.6557 2 1 0
1.30796 90.5899 90.5899 2 1 0
1.30819 90.524 90.524 2 1 0
1.30842 90.4581 90.4581 2 1 0
1.30865 90.3923 90.3923 2 1 0
1.30889 90.3264 90.3264 2 1 0
1.30912 90.2606 90.2606 2 1 0
1.30935 90.1948 90.1948 2 1 0
1.30959 90.1289 90.1289 2 1 0
1.30982 90.0631 90.0631 2 1 0
1.31006 89.9973 89.9973 2 1 0
1.31029 89.9315 89.9315 2 1 0
1.31053 89.8657 89.8657 2 1 0
1.31076 89.7999 89.7999 2 1 0
1.311 89.7341 89.7341 2 1 0
1.31124 89.6683 89.6683 2 1 0
1.31148 89.6026 89.6026 2 1 0
1.31172 89.5368 89.5368 2 1 0
1.31196 89.471 89.471 2 1 0
1.3122 89.4053 89.4053 2 1 0
1.31244 89.3395 89.3395 2 1 0
1.31268 89.2738 89.2738 2 1 0
1.31292 89.2081 89.2081 2 1 0
1.31316 89.1423 89.1423 2 1 0
1.3134 89.0766 89.0766 2 1 0
1.31364 89.0109 89.0109 2 1 0
1.31389 88.9452 88.9452 2 1 0
1.31413 88.8795 88.8795 2 1 0
1.31438 88.8138 88.8138 2 1 0
1.31462 88.7481 88.7481 2 1 0
1.31487 88.6824 88.6824 2 1 0
1.31511 88.6167 88.6167 2 1 0
1.31536 88.5511 88.5511 2 1 0
1.31561 88.4854 88.4854 2 1 0
1.31585 88.4198 88.4198 2 1 0
1.3161 88.3541 88.3541 2 1 0
1.31635 88.2885 88.2885 2 1 0
1.3166 88.2228 88.2228 2 1 0
1.31685 88.1572 88.1572 2 1 0
1.3171 88.0916 88.0916 2 1 0
1.31735 88.026 88.026 2 1 0
1.3176 87.9604 87.9604 2 1 0
1.31785 87.8948 87.8948 2 1 0
1.3181 87.8292 87.8292 2 1 0
1.31835 87.7636 87.7636 2 1 0
1.31861 87.698 87.698 2 1 0
1.31886 87.6324 87.6324 2 1 0
1.31912 87.5669 87.5669 2 1 0
1.31937 87.5013 87.5013 2 1 0
1.31963 87.4358 87.4358 2 1 0
1.31988 87.3702 87.3702 2 1 0
1.32014 87.3047 87.3047 2 1 0
1.32039 87.2392 87.2392 2 1 0
1.32065 87.1736 87.1736 2 1 0
1.32091 87.1081 87.1081 2 1 0
1.32117 87.0426 87.0426 2 1 0
1.32143 86.9771 86.9771 2 1 0
1.32169 86.9116 86.9116 2 1 0
1.32195 86.8461 86.8461 2 1 0
1.32221 86.7807 86.7807 2 1 0
1.32247 86.7152 86.7152 2 1 0
1.32273 86.6497 86.6497 2 1 0
1.32299 86.5843 86.5843 2 1 0
1.32326 86.5188 86.5188 2 1 0
1.32352 86.4534 86.4534 2 1 0
1.32378 86.3879 86.3879 2 1 0
1.32405 86.3225 86.3225 2 1 0
1.32431 86.2571 86.2571 2 1 0
1.32458 86.1917 86.1917 2 1 0
1.32484 86.1263 86.1263 2 1 0
1.32511 86.0609 86.0609 2 1 0
1.32538 85.9955 85.9955 2 1 0
1.32564 85.9301 85.9301 2 1 0
1.32591 85.8647 85.8647 2 1 0
1.32618 85.7993 85.7993 2 1 0
1.32645 85.734 85.734 2 1 0
1.32672 85.6686 85.6686 2 1 0
1.32699 85.6033 85.6033 2 1 0
1.32726 85.5379 85.5379 2 1 0
1.32753 85.4726 85.4726 2 1 0
1.32781 85.4073 85.4073 2 1 0
1.32808 85.3419 85.3419 2 1 0
1.32835 85.2766 85.2766 2 1 0
1.32863 85.2113 85.2113 2 1 0
1.3289 85.146 85.146 2 1 0
1.32918 85.0807 85.0807 2 1 0
1.32945 85.0155 85.0155 2 1 0
1.32973 84.9502 84.9502 2 1 0
1.33 84.8849 84.8849 2 1 0
1.33028 84.8197 84.8197 2 1 0
1.33056 84.7544 84.7544 2 1 0
1.33084 84.6892 84.6892 2 1 0
1.33112 84.6239 84.6239 2 1 0
1.33139 84.5587 84.5587 2 1 0
1.33167 84.4935 84.4935 2 1 0
1.33196 84.4283 84.4283 2 1 0
1.33224 84.3631 84.3631 2 1 0
1.33252 84.2979 84.2979 2 1 0
1.3328 84.2327 84.2327 2 1 0
1.33308 84.1675 84.1675 2 1 0
1.33337 84.1023 84.1023 2 1 0
1.33365 84.0372 84.0372 2 1 0
1.33394 83.972 83.972 2 1 0
1.33422 83.9069 83.9069 2 1 0
1.33451 83.8417 83.8417 2 1 0
1.33479 83.7766 83.7766 2 1 0
1.33508 83.7114 83.7114 2 1 0
1.33537 83.6463 83.6463 2 1 0
1.33566 83.5812 83.5812 2 1 0
1.33594 83.5161 83.5161 2 1 0
1.33623 83.451 83.451 2 1 0
1.33652 83.3859 83.3859 2 1 0
1.33681 83.3209 83.3209 2 1 0
1.33711 83.2558 83.2558 2 1 0
1.3374 83.1907 83.1907 2 1 0
1.33769 83.1257 83.1257 2 1 0
1.33798 83.0606 83.0606 2 1 0
1.33828 82.9956 82.9956 2 1 0
1.33857 82.9305 82.9305 2 1 0
1.33886 82.8655 82.8655 2 1 0
1.33916 82.8005 82.8005 2 1 0
1.33946 82.7355 82.7355 2 1 0
1.33975 82.6705 82.6705 2 1 0
1.34005 82.6055 82.6055 2 1 0
1.34035 82.5405 82.5405 2 1 0
1.34065 82.4755 82.4755 2 1 0
1.34094 82.4106 82.4106 2 1 0
1.34124 82.3456 82.3456 2 1 0
1.34154 82.2807 82.2807 2 1 0
1.34184 82.2157 82.2157 2 1 0
1.34215 82.1508 82.1508 2 1 0
1.34245 82.0859 82.0859 2 1 0
1.34275 82.0209 82.0209 2 1 0
1.34305 81.956 81.956 2 1 0
1.34336 81.8911 81.8911 2 1 0
1.34366 81.8262 81.8262 2 1 0
1.34397 81.7613 81.7613 2 1 0
1.34427 81.6965 81.6965 2 1 0
1.34458 81.6316 81.6316 2 1 0
1.34489 81.5667 81.5667 2 1 0
1.34519 81.5019 81.5019 2 1 0
1.3455 81.437 81.437 2 1 0
1.34581 81.3722 81.3722 2 1 0
1.34612 81.3074 81.3074 2 1 0
1.34643 81.2426 81.2426 2 1 0
1.34674 81.1778 81.1778 2 1 0
1.34705 81.113 81.113 2 1 0
1.34736 81.0482 81.0482 2 1 0
1.34767 80.9834 80.9834 2 1 0
1.34799 80.9186 80.9186 2 1 0
1.3483 80.8538 80.8538 2 1 0
1.34862 80.7891 80.7891 2 1 0
1.34893 80.7243 80.7243 2 1 0
1.34925 80.6596 80.6596 2 1 0
1.34956 80.5948 80.5948 2 1 0
1.34988 80.5301 80.5301 2 1 0
1.3502 80.4654 80.4654 2 1 0
1.35052 80.4007 80.4007 2 1 0
1.35083 80.336 80.336 2 1 0
1.35115 80.2713 80.2713 2 1 0
1.35147 80.2066 80.2066 2 1 0
1.35179 80.142 80.142 2 1 0
1.35212 80.0773 80.0773 2 1 0
1.35244 80.0126 80.0126 2 1 0
1.35276 79.948 79.948 2 1 0
1.35308 79.8834 79.8834 2 1 0
1.35341 79.8187 79.8187 2 1 0
1.35373 79.7541 79.7541 2 1 0
1.35406 79.6895 79.6895 2 1 0
1.35438 79.6249 79.6249 2 1 0
1.35471 79.5603 79.5603 2 1 0
1.35504 79.4957 79.4957 2 1 0
1.35537 79.4311 79.4311 2 1 0
1.35569 79.3666 79.3666 2 1 0
1.35602 79.302 79.302 2 1 0
1.35635 79.2375 79.2375 2 1 0
1.35668 79.1729 79.1729 2 1 0
1.35701 79.1084 79.1084 2 1 0
1.35735 79.0439 79.0439 2 1 0
1.35768 78.9794 78.9794 2 1 0
1.35801 78.9149 78.9149 2 1 0
1.35835 78.8504 78.8504 2 1 0
1.35868 78.7859 78.7859 2 1 0
1.35902 78.7214 78.7214 2 1 0
1.35935 78.6569 78.6569 2 1 0
1.35969 78.5925 78.5925 2 1 0
1.36003 78.528 78.528 2 1 0
1.36036 78.4636 78.4636 2 1 0
1.3607 78.3992 78.3992 2 1 0
1.36104 78.3347 78.3347 2 1 0
1.36138 78.2703 78.2703 2 1 0
1.36172 78.2059 78.2059 2 1 0
1.36206 78.1415 78.1415 2 1 0
1.3624 78.0771 78.0771 2 1 0
1.36275 78.0128 78.0128 2 1 0
1.36309 77.9484 77.9484 2 1 0
1.36343 77.884 77.884 2 1 0
1.36378 77.8197 77.8197 2 1 0
1.36412 77.7553 77.7553 2 1 0
1.36447 77.691 77.691 2 1 0
1.36482 77.6267 77.6267 2 1 0
1.36517 77.5624 77.5624 2 1 0
1.36551 77.4981 77.4981 2 1 0
1.36586 77.4338 77.4338 2 1 0
1.36621 77.3695 77.3695 2 1 0
1.36656 77.3052 77.3052 2 1 0
1.36691 77.241 77.241 2 1 0
1.36726 77.1767 77.1767 2 1 0
1.36762 77.1125 77.1125 2 1 0
1.36797 77.0482 77.0482 2 1 0
1.36832 76.984 76.984 2 1 0
1.36868 76.9198 76.9198 2 1 0
1.36903 76.8556 76.8556 2 1 0
1.36939 76.7914 76.7914 2 1 0
1.36975 76.7272 76.7272 2 1 0
1.3701 76.663 76.663 2 1 0
1.37046 76.5989 76.5989 2 1 0
1.37082 76.5347 76.5347 2 1 0
1.37118 76.4706 76.4706 2 1 0
1.37154 76.4064 76.4064 2 1 0
1.3719 76.3423 76.3423 2 1 0
1.37226 76.2782 76.2782 2 1 0
1.37262 76.2141 76.2141 2 1 0
1.37299 76.15 76.15 2 1 0
1.37335 76.0859 76.0859 2 1 0
1.37372 76.0218 76.0218 2 1 0
1.37408 75.9577 75.9577 2 1 0
1.37445 75.8937 75.8937 2 1 0
1.37481 75.8296 75.8296 2 1 0
1.37518 75.7656 75.7656 2 1 0
1.37555 75.7016 75.7016 2 1 0
1.37592 75.6375 75.6375 2 1 0
1.37629 75.5735 75.5735 2 1 0
1.37666 75.5095 75.5095 2 1 0
1.37703 75.4456 75.4456 2 1 0
1.3774 75.3816 75.3816 2 1 0
1.37777 75.3176 75.3176 2 1 0
1.37815 75.2536 75.2536 2 1 0
1.37852 75.1897 75.1897 2 1 0
1.37889 75.1258 75.1258 2 1 0
1.37927 75.0618 75.0618 2 1 0
1.37965 74.9979 74.9979 2 1 0
1.38002 74.934 74.934 2 1 0
1.3804 74.8701 74.8701 2 1 0
1.38078 74.8062 74.8062 2 1 0
1.38116 74.7423 74.7423 2 1 0
1.38154 74.6785 74.6785 2 1 0
1.38192 74.6146 74.6146 2 1 0
1.3823 74.5508 74.5508 2 1 0
1.38268 74.4869 74.4869 2 1 0
1.38307 74.4231 74.4231 2 1 0
1.38345 74.3593 74.3593 2 1 0
1.38383 74.2955 74.2955 2 1 0
1.38422 74.2317 74.2317 2 1 0
1.38461 74.1679 74.1679 2 1 0
1.38499 74.1041 74.1041 2 1 0
1.38538 74.0404 74.0404 2 1 0
1.38577 73.9766 73.9766 2 1 0
1.38616 73.9129 73.9129 2 1 0
1.38655 73.8491 73.8491 2 1 0
1.38694 73.7854 73.7854 2 1 0
1.38733 73.7217 73.7217 2 1 0
1.38772 73.658 73.658 2 1 0
1.38811 73.5943 73.5943 2 1 0
1.38851 73.5306 73.5306 2 1 0
1.3889 73.467 73.467 2 1 0
1.3893 73.4033 73.4033 2 1 0
1.38969 73.3397 73.3397 2 1 0
1.39009 73.276 73.276 2 1 0
1.39049 73.2124 73.2124 2 1 0
1.39089 73.1488 73.1488 2 1 0
1.39129 73.0852 73.0852 2 1 0
1.39169 73.0216 73.0216 2 1 0
1.39209 72.958 72.958 2 1 0
1.39249 72.8944 72.8944 2 1 0
1.39289 72.8309 72.8309 2 1 0
1.39329 72.7673 72.7673 2 1 0
1.3937 72.7038 72.7038 2 1 0
1.3941 72.6403 72.6403 2 1 0
1.39451 72.5767 72.5767 2 1 0
1.39492 72.5132 72.5132 2 1 0
1.39532 72.4497 72.4497 2 1 0
1.39573 72.3863 72.3863 2 1 0
1.39614 72.3228 72.3228 2 1 0
1.39655 72.2593 72.2593 2 1 0
1.39696 72.1959 72.1959 2 1 0
1.39737 72.1324 72.1324 2 1 0
1.39778 72.069 72.069 2 1 0
1.3982 72.0056 72.0056 2 1 0
1.39861 71.9422 71.9422 2 1 0
1.39902 71.8788 71.8788 2 1 0
1.39944 71.8154 71.8154 2 1 0
1.39986 71.752 71.752 2 1 0
1.40027 71.6887 71.6887 2 1 0
1.40069 71.6253 71.6253 2 1 0
1.40111 71.562 71.562 2 1 0
1.40153 71.4987 71.4987 2 1 0
1.40195 71.4353 71.4353 2 1 0
1.40237 71.372 71.372 2 1 0
1.40279 71.3087 71.3087 2 1 0
1.40321 71.2455 71.2455 2 1 0
1.40364 71.1822 71.1822 2 1 0
1.40406 71.1189 71.1189 2 1 0
1.40449 71.0557 71.0557 2 1 0
1.40491 70.9924 70.9924 2 1 0
1.40534 70.9292 70.9292 2 1 0
1.40577 70.866 70.866 2 1 0
1.4062 70.8028 70.8028 2 1 0
1.40663 70.7396 70.7396 2 1 0
1.40706 70.6764 70.6764 2 1 0
1.40749 70.6133 70.6133 2 1 0
1.40792 70.5501 70.5501 2 1 0
1.40835 70.487 70.487 2 1 0
1.40879 70.4239 70.4239 2 1 0
1.40922 70.3607 70.3607 2 1 0
1.40966 70.2976 70.2976 2 1 0
1.41009 70.2345 70.2345 2 1 0
1.41053 70.1714 70.1714 2 1 0
1.41097 70.1084 70.1084 2 1 0
1.41141 70.0453 70.0453 2 1 0
1.41185 69.9823 69.9823 2 1 0
1.41229 69.9192 69.9192 2 1 0
1.41273 69.8562 69.8562 2 1 0
1.41317 69.7932 69.7932 2 1 0
1.41362 69.7302 69.7302 2 1 0
1.41406 69.6672 69.6672 2 1 0
1.41451 69.6042 69.6042 2 1 0
1.41495 69.5413 69.5413 2 1 0
1.4154 69.4783 69.4783 2 1 0
1.41585 69.4154 69.4154 2 1 0
1.41629 69.3524 69.3524 2 1 0
1.41674 69.2895 69.2895 2 1 0
1.41719 69.2266 69.2266 2 1 0
1.41765 69.1637 69.1637 2 1 0
1.4181 69.1009 69.1009 2 1 0
1.41855 69.038 69.038 2 1 0
1.419 68.9751 68.9751 2 1 0
1.41946 68.9123 68.9123 2 1 0
1.41992 68.8495 68.8495 2 1 0
1.42037 68.7866 68.7866 2 1 0
1.42083 68.7238 68.7238 2 1 0
1.42129 68.661 68.661 2 1 0
1.42175 68.5983 68.5983 2 1 0
1.42221 68.5355 68.5355 2 1 0
1.42267 68.4727 68.4727 2 1 0
1.42313 68.41 68.41 2 1 0
1.42359 68.3473 68.3473 2 1 0
1.42406 68.2846 68.2846 2 1 0
1.42452 68.2218 68.2218 2 1 0
1.42499 68.1592 68.1592 2 1 0
1.42545 68.0965 68.0965 2 1 0
1.42592 68.0338 68.0338 2 1 0
1.42639 67.9712 67.9712 2 1 0
1.42686 67.9085 67.9085 2 1 0
1.42733 67.8459 67.8459 2 1 0
1.4278 67.7833 67.7833 2 1 0
1.42827 67.7207 67.7207 2 1 0
1.42875 67.6581 67.6581 2 1 0
1.42922 67.5955 67.5955 2 1 0
1.4297 67.5329 67.5329 2 1 0
1.43017 67.4704 67.4704 2 1 0
1.43065 67.4078 67.4078 2 1 0
1.43113 67.3453 67.3453 2 1 0
1.43161 67.2828 67.2828 2 1 0
1.43208 67.2203 67.2203 2 1 0
1.43257 67.1578 67.1578 2 1 0
1.43305 67.0953 67.0953 2 1 0
1.43353 67.0329 67.0329 2 1 0
1.43401 66.9704 66.9704 2 1 0
1.4345 66.908 66.908 2 1 0
1.43498 66.8456 66.8456 2 1 0
1.43547 66.7832 66.7832 2 1 0
1.43596 66.7208 66.7208 2 1 0
1.43644 66.6584 66.6584 2 1 0
1.43693 66.596 66.596 2 1 0
1.43742 66.5337 66.5337 2 1 0
1.43792 66.4713 66.4713 2 1 0
1.43841 66.409 66.409 2 1 0
1.4389 66.3467 66.3467 2 1 0
1.43939 66.2844 66.2844 2 1 0
1.43989 66.2221 66.2221 2 1 0
1.44039 66.1598 66.1598 2 1 0
1.44088 66.0975 66.0975 2 1 0
1.44138 66.0353 66.0353 2 1 0
1.44188 65.9731 65.9731 2 1 0
1.44238 65.9108 65.9108 2 1 0
1.44288 65.8486 65.8486 2 1 0
1.44338 65.7864 65.7864 2 1 0
1.44389 65.7243 65.7243 2 1 0
1.44439 65.6621 65.6621 2 1 0
1.44489 65.5999 65.5999 2 1 0
1.4454 65.5378 65.5378 2 1 0
1.44591 65.4757 65.4757 2 1 0
1.44642 65.4136 65.4136 2 1 0
1.44692 65.3515 65.3515 2 1 0
1.44743 65.2894 65.2894 2 1 0
1.44794 65.2273 65.2273 2 1 0
1.44846 65.1652 65.1652 2 1 0
1.44897 65.1032 65.1032 2 1 0
1.44948 65.0412 65.0412 2 1 0
1.45 64.9792 64.9792 2 1 0
1.45051 64.9172 64.9172 2 1 0
1.45103 64.8552 64.8552 2 1 0
1.45155 64.7932 64.7932 2 1 0
1.45207 64.7312 64.7312 2 1 0
1.45259 64.6693 64.6693 2 1 0
1.45311 64.6074 64.6074 2 1 0
1.45363 64.5455 64.5455 2 1 0
1.45416 64.4836 64.4836 2 1 0
1.45468 64.4217 64.4217 2 1 0
1.4552 64.3598 64.3598 2 1 0
1.45573 64.2979 64.2979 2 1 0
1.45626 64.2361 64.2361 2 1 0
1.45679 64.1743 64.1743 2 1 0
1.45732 64.1124 64.1124 2 1 0
1.45785 64.0506 64.0506 2 1 0
1.45838 63.9888 63.9888 2 1 0
1.45891 63.9271 63.9271 2 1 0
1.45944 63.8653 63.8653 2 1 0
1.45998 63.8036 63.8036 2 1 0
1.46051 63.7418 63.7418 2 1 0
1.46105 63.6801 63.6801 2 1 0
1.46159 63.6184 63.6184 2 1 0
1.46213 63.5567 63.5567 2 1 0
1.46267 63.4951 63.4951 2 1 0
1.46321 63.4334 63.4334 2 1 0
1.46375 63.3718 63.3718 2 1 0
1.46429 63.3102 63.3102 2 1 0
1.46484 63.2485 63.2485 2 1 0
1.46538 63.1869 63.1869 2 1 0
1.46593 63.1254 63.1254 2 1 0
1.46648 63.0638 63.0638 2 1 0
1.46703 63.0022 63.0022 2 1 0
1.46758 62.9407 62.9407 2 1 0
1.46813 62.8792 62.8792 2 1 0
1.46868 62.8177 62.8177 2 1 0
1.46923 62.7562 62.7562 2 1 0
1.46979 62.6947 62.6947 2 1 0
1.47034 62.6332 62.6332 2 1 0
1.4709 62.5718 62.5718 2 1 0
1.47145 62.5104 62.5104 2 1 0
1.47201 62.4489 62.4489 2 1 0
1.47257 62.3875 62.3875 2 1 0
1.47313 62.3262 62.3262 2 1 0
1.47369 62.2648 62.2648 2 1 0
1.47426 62.2034 62.2034 2 1 0
1.47482 62.1421 62.1421 2 1 0
1.47539 62.0808 62.0808 2 1 0
1.47595 62.0195 62.0195 2 1 0
1.47652 61.9582 61.9582 2 1 0
1.47709 61.8969 61.8969 2 1 0
1.47766 61.8356 61.8356 2 1 0
1.47823 61.7744 61.7744 2 1 0
1.4788 61.7131 61.7131 2 1 0
1.47937 61.6519 61.6519 2 1 0
1.47995 61.5907 61.5907 2 1 0
1.48052 61.5295 61.5295 2 1 0
1.4811 61.4684 61.4684 2 1 0
1.48168 61.4072 61.4072 2 1 0
1.48226 61.3461 61.3461 2 1 0
1.48284 61.2849 61.2849 2 1 0
1.48342 61.2238 61.2238 2 1 0
1.484 61.1627 61.1627 2 1 0
1.48458 61.1017 61.1017 2 1 0
1.48517 61.0406 61.0406 2 1 0
1.48575 60.9796 60.9796 2 1 0
1.48634 60.9185 60.9185 2 1 0
1.48693 60.8575 60.8575 2 1 0
1.48752 60.7965 60.7965 2 1 0
1.48811 60.7355 60.7355 2 1 0
1.4887 60.6746 60.6746 2 1 0
1.48929 60.6136 60.6136 2 1 0
1.48988 60.5527 60.5527 2 1 0
1.49048 60.4918 60.4918 2 1 0
1.49107 60.4309 60.4309 2 1 0
1.49167 60.37 60.37 2 1 0
1.49227 60.3091 60.3091 2 1 0
1.49287 60.2483 60.2483 2 1 0
1.49347 60.1875 60.1875 2 1 0
1.49407 60.1266 60.1266 2 1 0
1.49468 60.0658 60.0658 2 1 0
1.49528 60.0051 60.0051 2 1 0
1.49589 59.9443 59.9443 2 1 0
1.49649 59.8835 59.8835 2 1 0
1.4971 59.8228 59.8228 2 1 0
1.49771 59.7621 59.7621 2 1 0
1.49832 59.7014 59.7014 2 1 0
1.49893 59.6407 59.6407 2 1 0
1.49955 59.58 59.58 2 1 0
1.50016 59.5194 59.5194 2 1 0
1.50077 59.4587 59.4587 2 1 0
1.50139 59.3981 59.3981 2 1 0
1.50201 59.3375 59.3375 2 1 0
1.50263 59.2769 59.2769 2 1 0
1.50325 59.2164 59.2164 2 1 0
1.50387 59.1558 59.1558 2 1 0
1.50449 59.0953 59.0953 2 1 0
1.50512 59.0348 59.0348 2 1 0
1.50574 58.9743 58.9743 2 1 0
1.50637 58.9138 58.9138 2 1 0
1.507 58.8533 58.8533 2 1 0
1.50762 58.7929 58.7929 2 1 0
1.50825 58.7324 58.7324 2 1 0
1.50889 58.672 58.672 2 1 0
1.50952 58.6116 58.6116 2 1 0
1.51015 58.5512 58.5512 2 1 0
1.51079 58.4909 58.4909 2 1 0
1.51142 58.4305 58.4305 2 1 0
1.51206 58.3702 58.3702 2 1 0
1.5127 58.3099 58.3099 2 1 0
1.51334 58.2496 58.2496 2 1 0
1.51398 58.1893 58.1893 2 1 0
1.51463 58.129 58.129 2 1 0
1.51527 58.0688 58.0688 2 1 0
1.51592 58.0086 58.0086 2 1 0
1.51656 57.9484 57.9484 2 1 0
1.51721 57.8882 57.8882 2 1 0
1.51786 57.828 57.828 2 1 0
1.51851 57.7679 57.7679 2 1 0
1.51916 57.7077 57.7077 2 1 0
1.51981 57.6476 57.6476 2 1 0
1.52047 57.5875 57.5875 2 1 0
1.52112 57.5274 57.5274 2 1 0
1.52178 57.4673 57.4673 2 1 0
1.52244 57.4073 57.4073 2 1 0
1.5231 57.3473 57.3473 2 1 0
1.52376 57.2873 57.2873 2 1 0
1.52442 57.2273 57.2273 2 1 0
1.52509 57.1673 57.1673 2 1 0
1.52575 57.1073 57.1073 2 1 0
1.52642 57.0474 57.0474 2 1 0
1.52709 56.9875 56.9875 2 1 0
1.52775 56.9276 56.9276 2 1 0
1.52842 56.8677 56.8677 2 1 0
1.5291 56.8078 56.8078 2 1 0
1.52977 56.748 56.748 2 1 0
1.53044 56.6881 56.6881 2 1 0
1.53112 56.6283 56.6283 2 1 0
1.5318 56.5685 56.5685 2 1 0
1.53247 56.5087 56.5087 2 1 0
1.53315 56.449 56.449 2 1 0
1.53383 56.3892 56.3892 2 1 0
1.53452 56.3295 56.3295 2 1 0
1.5352 56.2698 56.2698 2 1 0
1.53589 56.2101 56.2101 2 1 0
1.53657 56.1505 56.1505 2 1 0
1.53726 56.0908 56.0908 2 1 0
1.53795 56.0312 56.0312 2 1 0
1.53864 55.9716 55.9716 2 1 0
1.53933 55.912 55.912 2 1 0
1.54003 55.8524 55.8524 2 1 0
1.54072 55.7929 55.7929 2 1 0
1.54142 55.7333 55.7333 2 1 0
1.54211 55.6738 55.6738 2 1 0
1.54281 55.6143 55.6143 2 1 0
1.54351 55.5548 55.5548 2 1 0
1.54422 55.4954 55.4954 2 1 0
1.54492 55.4359 55.4359 2 1 0
1.54562 55.3765 55.3765 2 1 0
1.54633 55.3171 55.3171 2 1 0
1.54704 55.2577 55.2577 2 1 0
1.54774 55.1984 55.1984 2 1 0
1.54846 55.139 55.139 2 1 0
1.54917 55.0797 55.0797 2 1 0
1.54988 55.0204 55.0204 2 1 0
1.55059 54.9611 54.9611 2 1 0
1.55131 54.9018 54.9018 2 1 0
1.55203 54.8426 54.8426 2 1 0
1.55275 54.7834 54.7834 2 1 0
1.55347 54.7241 54.7241 2 1 0
1.55419 54.665 54.665 2 1 0
1.55491 54.6058 54.6058 2 1 0
1.55564 54.5466 54.5466 2 1 0
1.55636 54.4875 54.4875 2 1 0
1.55709 54.4284 54.4284 2 1 0
1.55782 54.3693 54.3693 2 1 0
1.55855 54.3102 54.3102 2 1 0
1.55928 54.2512 54.2512 2 1 0
1.56001 54.1921 54.1921 2 1 0
1.56075 54.1331 54.1331 2 1 0
1.56148 54.0741 54.0741 2 1 0
1.56222 54.0151 54.0151 2 1 0
1.56296 53.9562 53.9562 2 1 0
1.5637 53.8973 53.8973 2 1 0
1.56444 53.8383 53.8383 2 1 0
1.56519 53.7794 53.7794 2 1 0
1.56593 53.7206 53.7206 2 1 0
1.56668 53.6617 53.6617 2 1 0
1.56743 53.6029 53.6029 2 1 0
1.56818 53.5441 53.5441 2 1 0
1.56893 53.4853 53.4853 2 1 0
1.56968 53.4265 53.4265 2 1 0
1.57044 53.3677 53.3677 2 1 0
1.57119 53.309 53.309 2 1 0
1.57195 53.2503 53.2503 2 1 0
1.57271 53.1916 53.1916 2 1 0
1.57347 53.1329 53.1329 2 1 0
1.57423 53.0743 53.0743 2 1 0
1.57499 53.0156 53.0156 2 1 0
1.57576 52.957 52.957 2 1 0
1.57653 52.8984 52.8984 2 1 0
1.57729 52.8398 52.8398 2 1 0
1.57806 52.7813 52.7813 2 1 0
1.57883 52.7228 52.7228 2 1 0
1.57961 52.6642 52.6642 2 1 0
1.58038 52.6058 52.6058 2 1 0
1.58116 52.5473 52.5473 2 1 0
1.58193 52.4888 52.4888 2 1 0
1.58271 52.4304 52.4304 2 1 0
1.58349 52.372 52.372 2 1 0
1.58427 52.3136 52.3136 2 1 0
1.58506 52.2552 52.2552 2 1 0
1.58584 52.1969 52.1969 2 1 0
1.58663 52.1386 52.1386 2 1 0
1.58742 52.0803 52.0803 2 1 0
1.58821 52.022 52.022 2 1 0
1.589 51.9637 51.9637 2 1 0
1.58979 51.9055 51.9055 2 1 0
1.59059 51.8473 51.8473 2 1 0
1.59138 51.7891 51.7891 2 1 0
1.59218 51.7309 51.7309 2 1 0
1.59298 51.6727 51.6727 2 1 0
1.59378 51.6146 51.6146 2 1 0
1.59459 51.5565 51.5565 2 1 0
1.59539 51.4984 51.4984 2 1 0
1.5962 51.4403 51.4403 2 1 0
1.597 51.3823 51.3823 2 1 0
1.59781 51.3242 51.3242 2 1 0
1.59862 51.2662 51.2662 2 1 0
1.59944 51.2082 51.2082 2 1 0
1.60025 51.1503 51.1503 2 1 0
1.60107 51.0923 51.0923 2 1 0
1.60189 51.0344 51.0344 2 1 0
1.6027 50.9765 50.9765 2 1 0
1.60353 50.9186 50.9186 2 1 0
1.60435 50.8608 50.8608 2 1 0
1.60517 50.8029 50.8029 2 1 0
1.606 50.7451 50.7451 2 1 0
1.60683 50.6873 50.6873 2 1 0
1.60765 50.6296 50.6296 2 1 0
1.60849 50.5718 50.5718 2 1 0
1.60932 50.5141 50.5141 2 1 0
1.61015 50.4564 50.4564 2 1 0
1.61099 50.3987 50.3987 2 1 0
1.61183 50.341 50.341 2 1 0
1.61267 50.2834 50.2834 2 1 0
1.61351 50.2258 50.2258 2 1 0
1.61435 50.1682 50.1682 2 1 0
1.61519 50.1106 50.1106 2 1 0
1.61604 50.053 50.053 2 1 0
1.61689 49.9955 49.9955 2 1 0
1.61774 49.938 49.938 2 1 0
1.61859 49.8805 49.8805 2 1 0
1.61944 49.8231 49.8231 2 1 0
1.6203 49.7656 49.7656 2 1 0
1.62115 49.7082 49.7082 2 1 0
1.62201 49.6508 49.6508 2 1 0
1.62287 49.5934 49.5934 2 1 0
1.62373 49.5361 49.5361 2 1 0
1.6246 49.4787 49.4787 2 1 0
1.62546 49.4214 49.4214 2 1 0
1.62633 49.3641 49.3641 2 1 0
1.6272 49.3069 49.3069 2 1 0
1.62807 49.2496 49.2496 2 1 0
1.62894 49.1924 49.1924 2 1 0
1.62982 49.1352 49.1352 2 1 0
1.63069 49.0781 49.0781 2 1 0
1.63157 49.0209 49.0209 2 1 0
1.63245 48.9638 48.9638 2 1 0
1.63333 48.9067 48.9067 2 1 0
1.63421 48.8496 48.8496 2 1 0
1.6351 48.7925 48.7925 2 1 0
1.63599 48.7355 48.7355 2 1 0
1.63687 48.6785 48.6785 2 1 0
1.63777 48.6215 48.6215 2 1 0
1.63866 48.5645 48.5645 2 1 0
1.63955 48.5076 48.5076 2 1 0
1.64045 48.4506 48.4506 2 1 0
1.64135 48.3937 48.3937 2 1 0
1.64224 48.3369 48.3369 2 1 0
1.64315 48.28 48.28 2 1 0
1.64405 48.2232 48.2232 2 1 0
1.64495 48.1664 48.1664 2 1 0
1.64586 48.1096 48.1096 2 1 0
1.64677 48.0528 48.0528 2 1 0
1.64768 47.9961 47.9961 2 1 0
1.64859 47.9394 47.9394 2 1 0
1.64951 47.8827 47.8827 2 1 0
1.65042 47.826 47.826 2 1 0
1.65134 47.7694 47.7694 2 1 0
1.65226 47.7127 47.7127 2 1 0
1.65318 47.6561 47.6561 2 1 0
1.65411 47.5996 47.5996 2 1 0
1.65503 47.543 47.543 2 1 0
1.65596 47.4865 47.4865 2 1 0
1.65689 47.43 47.43 2 1 0
1.65782 47.3735 47.3735 2 1 0
1.65876 47.317 47.317 2 1 0
1.65969 47.2606 47.2606 2 1 0
1.66063 47.2042 47.2042 2 1 0
1.66157 47.1478 47.1478 2 1 0
1.66251 47.0914 47.0914 2 1 0
1.66345 47.0351 47.0351 2 1 0
1.6644 46.9788 46.9788 2 1 0
1.66534 46.9225 46.9225 2 1 0
1.66629 46.8662 46.8662 2 1 0
1.66724 46.81 46.81 2 1 0
1.6682 46.7537 46.7537 2 1 0
1.66915 46.6975 46.6975 2 1 0
1.67011 46.6414 46.6414 2 1 0
1.67107 46.5852 46.5852 2 1 0
1.67203 46.5291 46.5291 2 1 0
1.67299 46.473 46.473 2 1 0
1.67396 46.4169 46.4169 2 1 0
1.67492 46.3608 46.3608 2 1 0
1.67589 46.3048 46.3048 2 1 0
1.67686 46.2488 46.2488 2 1 0
1.67783 46.1928 46.1928 2 1 0
1.67881 46.1368 46.1368 2 1 0
1.67979 46.0809 46.0809 2 1 0
1.68076 46.025 46.025 2 1 0
1.68175 45.9691 45.9691 2 1 0
1.68273 45.9132 45.9132 2 1 0
1.68371 45.8574 45.8574 2 1 0
1.6847 45.8016 45.8016 2 1 0
1.68569 45.7458 45.7458 2 1 0
1.68668 45.69 45.69 2 1 0
1.68767 45.6343 45.6343 2 1 0
1.68867 45.5785 45.5785 2 1 0
1.68967 45.5229 45.5229 2 1 0
1.69066 45.4672 45.4672 2 1 0
1.69167 45.4115 45.4115 2 1 0
1.69267 45.3559 45.3559 2 1 0
1.69367 45.3003 45.3003 2 1 0
1.69468 45.2447 45.2447 2 1 0
1.69569 45.1892 45.1892 2 1 0
1.6967 45.1337 45.1337 2 1 0
1.69772 45.0782 45.0782 2 1 0
1.69873 45.0227 45.0227 2 1 0
1.69975 44.9672 44.9672 2 1 0
1.70077 44.9118 44.9118 2 1 0
1.7018 44.8564 44.8564 2 1 0
1.70282 44.801 44.801 2 1 0
1.70385 44.7457 44.7457 2 1 0
1.70488 44.6903 44.6903 2 1 0
1.70591 44.635 44.635 2 1 0
1.70694 44.5798 44.5798 2 1 0
1.70798 44.5245 44.5245 2 1 0
1.70901 44.4693 44.4693 2 1 0
1.71005 44.4141 44.4141 2 1 0
1.71109 44.3589 44.3589 2 1 0
1.71214 44.3037 44.3037 2 1 0
1.71318 44.2486 44.2486 2 1 0
1.71423 44.1935 44.1935 2 1 0
1.71528 44.1384 44.1384 2 1 0
1.71634 44.0833 44.0833 2 1 0
1.71739 44.0283 44.0283 2 1 0
1.71845 43.9733 43.9733 2 1 0
1.71951 43.9183 43.9183 2 1 0
1.72057 43.8634 43.8634 2 1 0
1.72163 43.8084 43.8084 2 1 0
1.7227 43.7535 43.7535 2 1 0
1.72377 43.6986 43.6986 2 1 0
1.72484 43.6438 43.6438 2 1 0
1.72591 43.5889 43.5889 2 1 0
1.72699 43.5341 43.5341 2 1 0
1.72807 43.4793 43.4793 2 1 0
1.72914 43.4246 43.4246 2 1 0
1.73023 43.3699 43.3699 2 1 0
1.73131 43.3151 43.3151 2 1 0
1.7324 43.2605 43.2605 2 1 0
1.73349 43.2058 43.2058 2 1 0
1.73458 43.1512 43.1512 2 1 0
1.73567 43.0966 43.0966 2 1 0
1.73677 43.042 43.042 2 1 0
1.73787 42.9874 42.9874 2 1 0
1.73897 42.9329 42.9329 2 1 0
1.74007 42.8784 42.8784 2 1 0
1.74117 42.8239 42.8239 2 1 0
1.74228 42.7694 42.7694 2 1 0
