0.105471 131.381 131.381 1 1 0
0.105474 131.379 131.379 1 1 0
0.105476 131.376 131.376 1 1 0
0.105478 131.374 131.374 1 1 0
0.10548 131.372 131.372 1 1 0
0.105482 131.369 131.369 1 1 0
0.105484 131.367 131.367 1 1 0
0.105486 131.364 131.364 1 1 0
0.105488 131.362 131.362 1 1 0
0.10549 131.36 131.36 1 1 0
0.105492 131.357 131.357 1 1 0
0.105495 131.355 131.355 1 1 0
0.105497 131.353 131.353 1 1 0
0.105499 131.35 131.35 1 1 0
0.105501 131.348 131.348 1 1 0
0.105503 131.345 131.345 1 1 0
0.105505 131.343 131.343 1 1 0
0.105507 131.341 131.341 1 1 0
0.105509 131.338 131.338 1 1 0
0.105511 131.336 131.336 1 1 0
0.105513 131.333 131.333 1 1 0
0.105515 131.331 131.331 1 1 0
0.105518 131.329 131.329 1 1 0
0.10552 131.326 131.326 1 1 0
0.105522 131.324 131.324 1 1 0
0.105524 131.322 131.322 1 1 0
0.105526 131.319 131.319 1 1 0
0.105528 131.317 131.317 1 1 0
0.10553 131.314 131.314 1 1 0
0.105532 131.312 131.312 1 1 0
0.105534 131.31 131.31 1 1 0
0.105536 131.307 131.307 1 1 0
0.105539 131.305 131.305 1 1 0
0.105541 131.303 131.303 1 1 0
0.105543 131.3 131.3 1 1 0
0.105545 131.298 131.298 1 1 0
0.105547 131.295 131.295 1 1 0
0.105549 131.293 131.293 1 1 0
0.105551 131.291 131.291 1 1 0
0.105553 131.288 131.288 1 1 0
0.105555 131.286 131.286 1 1 0
0.105557 131.283 131.283 1 1 0
0.105559 131.281 131.281 1 1 0
0.105562 131.279 131.279 1 1 0
0.105564 131.276 131.276 1 1 0
0.105566 131.274 131.274 1 1 0
0.105568 131.272 131.272 1 1 0
0.10557 131.269 131.269 1 1 0
0.105572 131.267 131.267 1 1 0
0.105574 131.264 131.264 1 1 0
0.105576 131.262 131.262 1 1 0
0.105578 131.26 131.26 1 1 0
0.10558 131.257 131.257 1 1 0
0.105583 131.255 131.255 1 1 0
0.105585 131.252 131.252 1 1 0
0.105587 131.25 131.25 1 1 0
0.105589 131.248 131.248 1 1 0
0.105591 131.245 131.245 1 1 0
0.105593 131.243 131.243 1 1 0
0.105595 131.241 131.241 1 1 0
0.105597 131.238 131.238 1 1 0
0.105599 131.236 131.236 1 1 0
0.105601 131.233 131.233 1 1 0
0.105604 131.231 131.231 1 1 0
0.105606 131.229 131.229 1 1 0
0.105608 131.226 131.226 1 1 0
0.10561 131.224 131.224 1 1 0
0.105612 131.221 131.221 1 1 0
0.105614 131.219 131.219 1 1 0
0.105616 131.217 131.217 1 1 0
0.105618 131.214 131.214 1 1 0
0.10562 131.212 131.212 1 1 0
0.105622 131.21 131.21 1 1 0
0.105625 131.207 131.207 1 1 0
0.105627 131.205 131.205 1 1 0
0.105629 131.202 131.202 1 1 0
0.105631 131.2 131.2 1 1 0
0.105633 131.198 131.198 1 1 0
0.105635 131.195 131.195 1 1 0
0.105637 131.193 131.193 1 1 0
0.105639 131.19 131.19 1 1 0
0.105641 131.188 131.188 1 1 0
0.105643 131.186 131.186 1 1 0
0.105646 131.183 131.183 1 1 0
0.105648 131.181 131.181 1 1 0
0.10565 131.179 131.179 1 1 0
0.105652 131.176 131.176 1 1 0
0.105654 131.174 131.174 1 1 0
0.105656 131.171 131.171 1 1 0
0.105658 131.169 131.169 1 1 0
0.10566 131.167 131.167 1 1 0
0.105662 131.164 131.164 1 1 0
0.105664 131.162 131.162 1 1 0
0.105667 131.159 131.159 1 1 0
0.105669 131.157 131.157 1 1 0
0.105671 131.155 131.155 1 1 0
0.105673 131.152 131.152 1 1 0
0.105675 131.15 131.15 1 1 0
0.105677 131.148 131.148 1 1 0
0.105679 131.145 131.145 1 1 0
0.105681 131.143 131.143 1 1 0
0.105683 131.14 131.14 1 1 0
0.105685 131.138 131.138 1 1 0
0.105688 131.136 131.136 1 1 0
0.10569 131.133 131.133 1 1 0
0.105692 131.131 131.131 1 1 0
0.105694 131.128 131.128 1 1 0
0.105696 131.126 131.126 1 1 0
0.105698 131.124 131.124 1 1 0
0.1057 131.121 131.121 1 1 0
0.105702 131.119 131.119 1 1 0
0.105704 131.117 131.117 1 1 0
0.105707 131.114 131.114 1 1 0
0.105709 131.112 131.112 1 1 0
0.105711 131.109 131.109 1 1 0
0.105713 131.107 131.107 1 1 0
0.105715 131.105 131.105 1 1 0
0.105717 131.102 131.102 1 1 0
0.105719 131.1 131.1 1 1 0
0.105721 131.097 131.097 1 1 0
0.105723 131.095 131.095 1 1 0
0.105725 131.093 131.093 1 1 0
0.105728 131.09 131.09 1 1 0
0.10573 131.088 131.088 1 1 0
0.105732 131.086 131.086 1 1 0
0.105734 131.083 131.083 1 1 0
0.105736 131.081 131.081 1 1 0
0.105738 131.078 131.078 1 1 0
0.10574 131.076 131.076 1 1 0
0.105742 131.074 131.074 1 1 0
0.105744 131.071 131.071 1 1 0
0.105747 131.069 131.069 1 1 0
0.105749 131.066 131.066 1 1 0
0.105751 131.064 131.064 1 1 0
0.105753 131.062 131.062 1 1 0
0.105755 131.059 131.059 1 1 0
0.105757 131.057 131.057 1 1 0
0.105759 131.055 131.055 1 1 0
0.105761 131.052 131.052 1 1 0
0.105763 131.05 131.05 1 1 0
0.105765 131.047 131.047 1 1 0
0.105768 131.045 131.045 1 1 0
0.10577 131.043 131.043 1 1 0
0.105772 131.04 131.04 1 1 0
0.105774 131.038 131.038 1 1 0
0.105776 131.035 131.035 1 1 0
0.105778 131.033 131.033 1 1 0
0.10578 131.031 131.031 1 1 0
0.105782 131.028 131.028 1 1 0
0.105784 131.026 131.026 1 1 0
0.105787 131.024 131.024 1 1 0
0.105789 131.021 131.021 1 1 0
0.105791 131.019 131.019 1 1 0
0.105793 131.016 131.016 1 1 0
0.105795 131.014 131.014 1 1 0
0.105797 131.012 131.012 1 1 0
0.105799 131.009 131.009 1 1 0
0.105801 131.007 131.007 1 1 0
0.105803 131.004 131.004 1 1 0
0.105806 131.002 131.002 1 1 0
0.105808 131 131 1 1 0
0.10581 130.997 130.997 1 1 0
0.105812 130.995 130.995 1 1 0
0.105814 130.992 130.992 1 1 0
0.105816 130.99 130.99 1 1 0
0.105818 130.988 130.988 1 1 0
0.10582 130.985 130.985 1 1 0
0.105822 130.983 130.983 1 1 0
0.105824 130.981 130.981 1 1 0
0.105827 130.978 130.978 1 1 0
0.105829 130.976 130.976 1 1 0
0.105831 130.973 130.973 1 1 0
0.105833 130.971 130.971 1 1 0
0.105835 130.969 130.969 1 1 0
0.105837 130.966 130.966 1 1 0
0.105839 130.964 130.964 1 1 0
0.105841 130.961 130.961 1 1 0
0.105843 130.959 130.959 1 1 0
0.105846 130.957 130.957 1 1 0
0.105848 130.954 130.954 1 1 0
0.10585 130.952 130.952 1 1 0
0.105852 130.95 130.95 1 1 0
0.105854 130.947 130.947 1 1 0
0.105856 130.945 130.945 1 1 0
0.105858 130.942 130.942 1 1 0
0.10586 130.94 130.94 1 1 0
0.105862 130.938 130.938 1 1 0
0.105865 130.935 130.935 1 1 0
0.105867 130.933 130.933 1 1 0
0.105869 130.93 130.93 1 1 0
0.105871 130.928 130.928 1 1 0
0.105873 130.926 130.926 1 1 0
0.105875 130.923 130.923 1 1 0
0.105877 130.921 130.921 1 1 0
0.105879 130.918 130.918 1 1 0
0.105881 130.916 130.916 1 1 0
0.105884 130.914 130.914 1 1 0
0.105886 130.911 130.911 1 1 0
0.105888 130.909 130.909 1 1 0
0.10589 130.907 130.907 1 1 0
0.105892 130.904 130.904 1 1 0
0.105894 130.902 130.902 1 1 0
0.105896 130.899 130.899 1 1 0
0.105898 130.897 130.897 1 1 0
0.1059 130.895 130.895 1 1 0
0.105903 130.892 130.892 1 1 0
0.105905 130.89 130.89 1 1 0
0.105907 130.887 130.887 1 1 0
0.105909 130.885 130.885 1 1 0
0.105911 130.883 130.883 1 1 0
0.105913 130.88 130.88 1 1 0
0.105915 130.878 130.878 1 1 0
0.105917 130.875 130.875 1 1 0
0.105919 130.873 130.873 1 1 0
0.105922 130.871 130.871 1 1 0
0.105924 130.868 130.868 1 1 0
0.105926 130.866 130.866 1 1 0
0.105928 130.864 130.864 1 1 0
0.10593 130.861 130.861 1 1 0
0.105932 130.859 130.859 1 1 0
0.105934 130.856 130.856 1 1 0
0.105936 130.854 130.854 1 1 0
0.105939 130.852 130.852 1 1 0
0.105941 130.849 130.849 1 1 0
0.105943 130.847 130.847 1 1 0
0.105945 130.844 130.844 1 1 0
0.105947 130.842 130.842 1 1 0
0.105949 130.84 130.84 1 1 0
0.105951 130.837 130.837 1 1 0
0.105953 130.835 130.835 1 1 0
0.105955 130.832 130.832 1 1 0
0.105958 130.83 130.83 1 1 0
0.10596 130.828 130.828 1 1 0
0.105962 130.825 130.825 1 1 0
0.105964 130.823 130.823 1 1 0
0.105966 130.821 130.821 1 1 0
0.105968 130.818 130.818 1 1 0
0.10597 130.816 130.816 1 1 0
0.105972 130.813 130.813 1 1 0
0.105974 130.811 130.811 1 1 0
0.105977 130.809 130.809 1 1 0
0.105979 130.806 130.806 1 1 0
0.105981 130.804 130.804 1 1 0
0.105983 130.801 130.801 1 1 0
0.105985 130.799 130.799 1 1 0
0.105987 130.797 130.797 1 1 0
0.105989 130.794 130.794 1 1 0
0.105991 130.792 130.792 1 1 0
0.105994 130.789 130.789 1 1 0
0.105996 130.787 130.787 1 1 0
0.105998 130.785 130.785 1 1 0
0.106 130.782 130.782 1 1 0
0.106002 130.78 130.78 1 1 0
0.106004 130.777 130.777 1 1 0
0.106006 130.775 130.775 1 1 0
0.106008 130.773 130.773 1 1 0
0.10601 130.77 130.77 1 1 0
0.106013 130.768 130.768 1 1 0
0.106015 130.766 130.766 1 1 0
0.106017 130.763 130.763 1 1 0
0.106019 130.761 130.761 1 1 0
0.106021 130.758 130.758 1 1 0
0.106023 130.756 130.756 1 1 0
0.106025 130.754 130.754 1 1 0
0.106027 130.751 130.751 1 1 0
0.10603 130.749 130.749 1 1 0
0.106032 130.746 130.746 1 1 0
0.106034 130.744 130.744 1 1 0
0.106036 130.742 130.742 1 1 0
0.106038 130.739 130.739 1 1 0
0.10604 130.737 130.737 1 1 0
0.106042 130.734 130.734 1 1 0
0.106044 130.732 130.732 1 1 0
0.106046 130.73 130.73 1 1 0
0.106049 130.727 130.727 1 1 0
0.106051 130.725 130.725 1 1 0
0.106053 130.723 130.723 1 1 0
0.106055 130.72 130.72 1 1 0
0.106057 130.718 130.718 1 1 0
0.106059 130.715 130.715 1 1 0
0.106061 130.713 130.713 1 1 0
0.106063 130.711 130.711 1 1 0
0.106066 130.708 130.708 1 1 0
0.106068 130.706 130.706 1 1 0
0.10607 130.703 130.703 1 1 0
0.106072 130.701 130.701 1 1 0
0.106074 130.699 130.699 1 1 0
0.106076 130.696 130.696 1 1 0
0.106078 130.694 130.694 1 1 0
0.10608 130.691 130.691 1 1 0
0.106083 130.689 130.689 1 1 0
0.106085 130.687 130.687 1 1 0
0.106087 130.684 130.684 1 1 0
0.106089 130.682 130.682 1 1 0
0.106091 130.679 130.679 1 1 0
0.106093 130.677 130.677 1 1 0
0.106095 130.675 130.675 1 1 0
0.106097 130.672 130.672 1 1 0
0.106099 130.67 130.67 1 1 0
0.106102 130.668 130.668 1 1 0
0.106104 130.665 130.665 1 1 0
0.106106 130.663 130.663 1 1 0
0.106108 130.66 130.66 1 1 0
0.10611 130.658 130.658 1 1 0
0.106112 130.656 130.656 1 1 0
0.106114 130.653 130.653 1 1 0
0.106116 130.651 130.651 1 1 0
0.106119 130.648 130.648 1 1 0
0.106121 130.646 130.646 1 1 0
0.106123 130.644 130.644 1 1 0
0.106125 130.641 130.641 1 1 0
0.106127 130.639 130.639 1 1 0
0.106129 130.636 130.636 1 1 0
0.106131 130.634 130.634 1 1 0
0.106133 130.632 130.632 1 1 0
0.106136 130.629 130.629 1 1 0
0.106138 130.627 130.627 1 1 0
0.10614 130.624 130.624 1 1 0
0.106142 130.622 130.622 1 1 0
0.106144 130.62 130.62 1 1 0
0.106146 130.617 130.617 1 1 0
0.106148 130.615 130.615 1 1 0
0.10615 130.612 130.612 1 1 0
0.106153 130.61 130.61 1 1 0
0.106155 130.608 130.608 1 1 0
0.106157 130.605 130.605 1 1 0
0.106159 130.603 130.603 1 1 0
0.106161 130.601 130.601 1 1 0
0.106163 130.598 130.598 1 1 0
0.106165 130.596 130.596 1 1 0
0.106167 130.593 130.593 1 1 0
0.10617 130.591 130.591 1 1 0
0.106172 130.589 130.589 1 1 0
0.106174 130.586 130.586 1 1 0
0.106176 130.584 130.584 1 1 0
0.106178 130.581 130.581 1 1 0
0.10618 130.579 130.579 1 1 0
0.106182 130.577 130.577 1 1 0
0.106184 130.574 130.574 1 1 0
0.106187 130.572 130.572 1 1 0
0.106189 130.569 130.569 1 1 0
0.106191 130.567 130.567 1 1 0
0.106193 130.565 130.565 1 1 0
0.106195 130.562 130.562 1 1 0
0.106197 130.56 130.56 1 1 0
0.106199 130.557 130.557 1 1 0
0.106201 130.555 130.555 1 1 0
0.106204 130.553 130.553 1 1 0
0.106206 130.55 130.55 1 1 0
0.106208 130.548 130.548 1 1 0
0.10621 130.545 130.545 1 1 0
0.106212 130.543 130.543 1 1 0
0.106214 130.541 130.541 1 1 0
0.106216 130.538 130.538 1 1 0
0.106218 130.536 130.536 1 1 0
0.106221 130.534 130.534 1 1 0
0.106223 130.531 130.531 1 1 0
0.106225 130.529 130.529 1 1 0
0.106227 130.526 130.526 1 1 0
0.106229 130.524 130.524 1 1 0
0.106231 130.522 130.522 1 1 0
0.106233 130.519 130.519 1 1 0
0.106235 130.517 130.517 1 1 0
0.106238 130.514 130.514 1 1 0
0.10624 130.512 130.512 1 1 0
0.106242 130.51 130.51 1 1 0
0.106244 130.507 130.507 1 1 0
0.106246 130.505 130.505 1 1 0
0.106248 130.502 130.502 1 1 0
0.10625 130.5 130.5 1 1 0
0.106253 130.498 130.498 1 1 0
0.106255 130.495 130.495 1 1 0
0.106257 130.493 130.493 1 1 0
0.106259 130.49 130.49 1 1 0
0.106261 130.488 130.488 1 1 0
0.106263 130.486 130.486 1 1 0
0.106265 130.483 130.483 1 1 0
0.106267 130.481 130.481 1 1 0
0.10627 130.478 130.478 1 1 0
0.106272 130.476 130.476 1 1 0
0.106274 130.474 130.474 1 1 0
0.106276 130.471 130.471 1 1 0
0.106278 130.469 130.469 1 1 0
0.10628 130.466 130.466 1 1 0
0.106282 130.464 130.464 1 1 0
0.106284 130.462 130.462 1 1 0
0.106287 130.459 130.459 1 1 0
0.106289 130.457 130.457 1 1 0
0.106291 130.455 130.455 1 1 0
0.106293 130.452 130.452 1 1 0
0.106295 130.45 130.45 1 1 0
0.106297 130.447 130.447 1 1 0
0.106299 130.445 130.445 1 1 0
0.106301 130.443 130.443 1 1 0
0.106304 130.44 130.44 1 1 0
0.106306 130.438 130.438 1 1 0
0.106308 130.435 130.435 1 1 0
0.10631 130.433 130.433 1 1 0
0.106312 130.431 130.431 1 1 0
0.106314 130.428 130.428 1 1 0
0.106316 130.426 130.426 1 1 0
0.106319 130.423 130.423 1 1 0
0.106321 130.421 130.421 1 1 0
0.106323 130.419 130.419 1 1 0
0.106325 130.416 130.416 1 1 0
0.106327 130.414 130.414 1 1 0
0.106329 130.411 130.411 1 1 0
0.106331 130.409 130.409 1 1 0
0.106333 130.407 130.407 1 1 0
0.106336 130.404 130.404 1 1 0
0.106338 130.402 130.402 1 1 0
0.10634 130.399 130.399 1 1 0
0.106342 130.397 130.397 1 1 0
0.106344 130.395 130.395 1 1 0
0.106346 130.392 130.392 1 1 0
0.106348 130.39 130.39 1 1 0
0.106351 130.387 130.387 1 1 0
0.106353 130.385 130.385 1 1 0
0.106355 130.383 130.383 1 1 0
0.106357 130.38 130.38 1 1 0
0.106359 130.378 130.378 1 1 0
0.106361 130.375 130.375 1 1 0
0.106363 130.373 130.373 1 1 0
0.106365 130.371 130.371 1 1 0
0.106368 130.368 130.368 1 1 0
0.10637 130.366 130.366 1 1 0
0.106372 130.363 130.363 1 1 0
0.106374 130.361 130.361 1 1 0
0.106376 130.359 130.359 1 1 0
0.106378 130.356 130.356 1 1 0
0.10638 130.354 130.354 1 1 0
0.106383 130.352 130.352 1 1 0
0.106385 130.349 130.349 1 1 0
0.106387 130.347 130.347 1 1 0
0.106389 130.344 130.344 1 1 0
0.106391 130.342 130.342 1 1 0
0.106393 130.34 130.34 1 1 0
0.106395 130.337 130.337 1 1 0
0.106397 130.335 130.335 1 1 0
0.1064 130.332 130.332 1 1 0
0.106402 130.33 130.33 1 1 0
0.106404 130.328 130.328 1 1 0
0.106406 130.325 130.325 1 1 0
0.106408 130.323 130.323 1 1 0
0.10641 130.32 130.32 1 1 0
0.106412 130.318 130.318 1 1 0
0.106415 130.316 130.316 1 1 0
0.106417 130.313 130.313 1 1 0
0.106419 130.311 130.311 1 1 0
0.106421 130.308 130.308 1 1 0
0.106423 130.306 130.306 1 1 0
0.106425 130.304 130.304 1 1 0
0.106427 130.301 130.301 1 1 0
0.10643 130.299 130.299 1 1 0
0.106432 130.296 130.296 1 1 0
0.106434 130.294 130.294 1 1 0
0.106436 130.292 130.292 1 1 0
0.106438 130.289 130.289 1 1 0
0.10644 130.287 130.287 1 1 0
0.106442 130.284 130.284 1 1 0
0.106444 130.282 130.282 1 1 0
0.106447 130.28 130.28 1 1 0
0.106449 130.277 130.277 1 1 0
0.106451 130.275 130.275 1 1 0
0.106453 130.272 130.272 1 1 0
0.106455 130.27 130.27 1 1 0
0.106457 130.268 130.268 1 1 0
0.106459 130.265 130.265 1 1 0
0.106462 130.263 130.263 1 1 0
0.106464 130.26 130.26 1 1 0
0.106466 130.258 130.258 1 1 0
0.106468 130.256 130.256 1 1 0
0.10647 130.253 130.253 1 1 0
0.106472 130.251 130.251 1 1 0
0.106474 130.248 130.248 1 1 0
0.106477 130.246 130.246 1 1 0
0.106479 130.244 130.244 1 1 0
0.106481 130.241 130.241 1 1 0
0.106483 130.239 130.239 1 1 0
0.106485 130.236 130.236 1 1 0
0.106487 130.234 130.234 1 1 0
0.106489 130.232 130.232 1 1 0
0.106492 130.229 130.229 1 1 0
0.106494 130.227 130.227 1 1 0
0.106496 130.224 130.224 1 1 0
0.106498 130.222 130.222 1 1 0
0.1065 130.22 130.22 1 1 0
0.106502 130.217 130.217 1 1 0
0.106504 130.215 130.215 1 1 0
0.106507 130.212 130.212 1 1 0
0.106509 130.21 130.21 1 1 0
0.106511 130.208 130.208 1 1 0
0.106513 130.205 130.205 1 1 0
0.106515 130.203 130.203 1 1 0
0.106517 130.2 130.2 1 1 0
0.106519 130.198 130.198 1 1 0
0.106521 130.196 130.196 1 1 0
0.106524 130.193 130.193 1 1 0
0.106526 130.191 130.191 1 1 0
0.106528 130.188 130.188 1 1 0
0.10653 130.186 130.186 1 1 0
0.106532 130.184 130.184 1 1 0
0.106534 130.181 130.181 1 1 0
0.106536 130.179 130.179 1 1 0
0.106539 130.176 130.176 1 1 0
0.106541 130.174 130.174 1 1 0
0.106543 130.172 130.172 1 1 0
0.106545 130.169 130.169 1 1 0
0.106547 130.167 130.167 1 1 0
0.106549 130.164 130.164 1 1 0
0.106551 130.162 130.162 1 1 0
0.106554 130.16 130.16 1 1 0
0.106556 130.157 130.157 1 1 0
0.106558 130.155 130.155 1 1 0
0.10656 130.152 130.152 1 1 0
0.106562 130.15 130.15 1 1 0
0.106564 130.148 130.148 1 1 0
0.106566 130.145 130.145 1 1 0
0.106569 130.143 130.143 1 1 0
0.106571 130.14 130.14 1 1 0
0.106573 130.138 130.138 1 1 0
0.106575 130.136 130.136 1 1 0
0.106577 130.133 130.133 1 1 0
0.106579 130.131 130.131 1 1 0
0.106581 130.128 130.128 1 1 0
0.106584 130.126 130.126 1 1 0
0.106586 130.124 130.124 1 1 0
0.106588 130.121 130.121 1 1 0
0.10659 130.119 130.119 1 1 0
0.106592 130.116 130.116 1 1 0
0.106594 130.114 130.114 1 1 0
0.106596 130.112 130.112 1 1 0
0.106599 130.109 130.109 1 1 0
0.106601 130.107 130.107 1 1 0
0.106603 130.104 130.104 1 1 0
0.106605 130.102 130.102 1 1 0
0.106607 130.1 130.1 1 1 0
0.106609 130.097 130.097 1 1 0
0.106612 130.095 130.095 1 1 0
0.106614 130.092 130.092 1 1 0
0.106616 130.09 130.09 1 1 0
0.106618 130.088 130.088 1 1 0
0.10662 130.085 130.085 1 1 0
0.106622 130.083 130.083 1 1 0
0.106624 130.08 130.08 1 1 0
0.106627 130.078 130.078 1 1 0
0.106629 130.076 130.076 1 1 0
0.106631 130.073 130.073 1 1 0
0.106633 130.071 130.071 1 1 0
0.106635 130.068 130.068 1 1 0
0.106637 130.066 130.066 1 1 0
0.106639 130.064 130.064 1 1 0
0.106642 130.061 130.061 1 1 0
0.106644 130.059 130.059 1 1 0
0.106646 130.056 130.056 1 1 0
0.106648 130.054 130.054 1 1 0
0.10665 130.052 130.052 1 1 0
0.106652 130.049 130.049 1 1 0
0.106654 130.047 130.047 1 1 0
0.106657 130.044 130.044 1 1 0
0.106659 130.042 130.042 1 1 0
0.106661 130.04 130.04 1 1 0
0.106663 130.037 130.037 1 1 0
0.106665 130.035 130.035 1 1 0
0.106667 130.032 130.032 1 1 0
0.106669 130.03 130.03 1 1 0
0.106672 130.028 130.028 1 1 0
0.106674 130.025 130.025 1 1 0
0.106676 130.023 130.023 1 1 0
0.106678 130.02 130.02 1 1 0
0.10668 130.018 130.018 1 1 0
0.106682 130.016 130.016 1 1 0
0.106685 130.013 130.013 1 1 0
0.106687 130.011 130.011 1 1 0
0.106689 130.008 130.008 1 1 0
0.106691 130.006 130.006 1 1 0
0.106693 130.004 130.004 1 1 0
0.106695 130.001 130.001 1 1 0
0.106697 129.999 129.999 1 1 0
0.1067 129.996 129.996 1 1 0
0.106702 129.994 129.994 1 1 0
0.106704 129.992 129.992 1 1 0
0.106706 129.989 129.989 1 1 0
0.106708 129.987 129.987 1 1 0
0.10671 129.984 129.984 1 1 0
0.106712 129.982 129.982 1 1 0
0.106715 129.98 129.98 1 1 0
0.106717 129.977 129.977 1 1 0
0.106719 129.975 129.975 1 1 0
0.106721 129.972 129.972 1 1 0
0.106723 129.97 129.97 1 1 0
0.106725 129.968 129.968 1 1 0
0.106728 129.965 129.965 1 1 0
0.10673 129.963 129.963 1 1 0
0.106732 129.96 129.96 1 1 0
0.106734 129.958 129.958 1 1 0
0.106736 129.956 129.956 1 1 0
0.106738 129.953 129.953 1 1 0
0.10674 129.951 129.951 1 1 0
0.106743 129.948 129.948 1 1 0
0.106745 129.946 129.946 1 1 0
0.106747 129.944 129.944 1 1 0
0.106749 129.941 129.941 1 1 0
0.106751 129.939 129.939 1 1 0
0.106753 129.936 129.936 1 1 0
0.106755 129.934 129.934 1 1 0
0.106758 129.932 129.932 1 1 0
0.10676 129.929 129.929 1 1 0
0.106762 129.927 129.927 1 1 0
0.106764 129.924 129.924 1 1 0
0.106766 129.922 129.922 1 1 0
0.106768 129.92 129.92 1 1 0
0.106771 129.917 129.917 1 1 0
0.106773 129.915 129.915 1 1 0
0.106775 129.912 129.912 1 1 0
0.106777 129.91 129.91 1 1 0
0.106779 129.908 129.908 1 1 0
0.106781 129.905 129.905 1 1 0
0.106783 129.903 129.903 1 1 0
0.106786 129.9 129.9 1 1 0
0.106788 129.898 129.898 1 1 0
0.10679 129.896 129.896 1 1 0
0.106792 129.893 129.893 1 1 0
0.106794 129.891 129.891 1 1 0
0.106796 129.888 129.888 1 1 0
0.106799 129.886 129.886 1 1 0
0.106801 129.884 129.884 1 1 0
0.106803 129.881 129.881 1 1 0
0.106805 129.879 129.879 1 1 0
0.106807 129.876 129.876 1 1 0
0.106809 129.874 129.874 1 1 0
0.106811 129.872 129.872 1 1 0
0.106814 129.869 129.869 1 1 0
0.106816 129.867 129.867 1 1 0
0.106818 129.864 129.864 1 1 0
0.10682 129.862 129.862 1 1 0
0.106822 129.859 129.859 1 1 0
0.106824 129.857 129.857 1 1 0
0.106827 129.855 129.855 1 1 0
0.106829 129.852 129.852 1 1 0
0.106831 129.85 129.85 1 1 0
0.106833 129.847 129.847 1 1 0
0.106835 129.845 129.845 1 1 0
0.106837 129.843 129.843 1 1 0
0.106839 129.84 129.84 1 1 0
0.106842 129.838 129.838 1 1 0
0.106844 129.835 129.835 1 1 0
0.106846 129.833 129.833 1 1 0
0.106848 129.831 129.831 1 1 0
0.10685 129.828 129.828 1 1 0
0.106852 129.826 129.826 1 1 0
0.106855 129.823 129.823 1 1 0
0.106857 129.821 129.821 1 1 0
0.106859 129.819 129.819 1 1 0
0.106861 129.816 129.816 1 1 0
0.106863 129.814 129.814 1 1 0
0.106865 129.811 129.811 1 1 0
0.106868 129.809 129.809 1 1 0
0.10687 129.807 129.807 1 1 0
0.106872 129.804 129.804 1 1 0
0.106874 129.802 129.802 1 1 0
0.106876 129.799 129.799 1 1 0
0.106878 129.797 129.797 1 1 0
0.10688 129.795 129.795 1 1 0
0.106883 129.792 129.792 1 1 0
0.106885 129.79 129.79 1 1 0
0.106887 129.787 129.787 1 1 0
0.106889 129.785 129.785 1 1 0
0.106891 129.783 129.783 1 1 0
0.106893 129.78 129.78 1 1 0
0.106896 129.778 129.778 1 1 0
0.106898 129.775 129.775 1 1 0
0.1069 129.773 129.773 1 1 0
0.106902 129.771 129.771 1 1 0
0.106904 129.768 129.768 1 1 0
0.106906 129.766 129.766 1 1 0
0.106909 129.763 129.763 1 1 0
0.106911 129.761 129.761 1 1 0
0.106913 129.758 129.758 1 1 0
0.106915 129.756 129.756 1 1 0
0.106917 129.754 129.754 1 1 0
0.106919 129.751 129.751 1 1 0
0.106921 129.749 129.749 1 1 0
0.106924 129.746 129.746 1 1 0
0.106926 129.744 129.744 1 1 0
0.106928 129.742 129.742 1 1 0
0.10693 129.739 129.739 1 1 0
0.106932 129.737 129.737 1 1 0
0.106934 129.734 129.734 1 1 0
0.106937 129.732 129.732 1 1 0
0.106939 129.73 129.73 1 1 0
0.106941 129.727 129.727 1 1 0
0.106943 129.725 129.725 1 1 0
0.106945 129.722 129.722 1 1 0
0.106947 129.72 129.72 1 1 0
0.10695 129.718 129.718 1 1 0
0.106952 129.715 129.715 1 1 0
0.106954 129.713 129.713 1 1 0
0.106956 129.71 129.71 1 1 0
0.106958 129.708 129.708 1 1 0
0.10696 129.706 129.706 1 1 0
0.106963 129.703 129.703 1 1 0
0.106965 129.701 129.701 1 1 0
0.106967 129.698 129.698 1 1 0
0.106969 129.696 129.696 1 1 0
0.106971 129.694 129.694 1 1 0
0.106973 129.691 129.691 1 1 0
0.106975 129.689 129.689 1 1 0
0.106978 129.686 129.686 1 1 0
0.10698 129.684 129.684 1 1 0
0.106982 129.682 129.682 1 1 0
0.106984 129.679 129.679 1 1 0
0.106986 129.677 129.677 1 1 0
0.106988 129.674 129.674 1 1 0
0.106991 129.672 129.672 1 1 0
0.106993 129.669 129.669 1 1 0
0.106995 129.667 129.667 1 1 0
0.106997 129.665 129.665 1 1 0
0.106999 129.662 129.662 1 1 0
0.107001 129.66 129.66 1 1 0
0.107004 129.657 129.657 1 1 0
0.107006 129.655 129.655 1 1 0
0.107008 129.653 129.653 1 1 0
0.10701 129.65 129.65 1 1 0
0.107012 129.648 129.648 1 1 0
0.107014 129.645 129.645 1 1 0
0.107017 129.643 129.643 1 1 0
0.107019 129.641 129.641 1 1 0
0.107021 129.638 129.638 1 1 0
0.107023 129.636 129.636 1 1 0
0.107025 129.633 129.633 1 1 0
0.107027 129.631 129.631 1 1 0
0.10703 129.629 129.629 1 1 0
0.107032 129.626 129.626 1 1 0
0.107034 129.624 129.624 1 1 0
0.107036 129.621 129.621 1 1 0
0.107038 129.619 129.619 1 1 0
0.10704 129.617 129.617 1 1 0
0.107043 129.614 129.614 1 1 0
0.107045 129.612 129.612 1 1 0
0.107047 129.609 129.609 1 1 0
0.107049 129.607 129.607 1 1 0
0.107051 129.604 129.604 1 1 0
0.107053 129.602 129.602 1 1 0
0.107056 129.6 129.6 1 1 0
0.107058 129.597 129.597 1 1 0
0.10706 129.595 129.595 1 1 0
0.107062 129.592 129.592 1 1 0
0.107064 129.59 129.59 1 1 0
0.107066 129.588 129.588 1 1 0
0.107069 129.585 129.585 1 1 0
0.107071 129.583 129.583 1 1 0
0.107073 129.58 129.58 1 1 0
0.107075 129.578 129.578 1 1 0
0.107077 129.576 129.576 1 1 0
0.107079 129.573 129.573 1 1 0
0.107082 129.571 129.571 1 1 0
0.107084 129.568 129.568 1 1 0
0.107086 129.566 129.566 1 1 0
0.107088 129.564 129.564 1 1 0
0.10709 129.561 129.561 1 1 0
0.107092 129.559 129.559 1 1 0
0.107095 129.556 129.556 1 1 0
0.107097 129.554 129.554 1 1 0
0.107099 129.551 129.551 1 1 0
0.107101 129.549 129.549 1 1 0
0.107103 129.547 129.547 1 1 0
0.107105 129.544 129.544 1 1 0
0.107108 129.542 129.542 1 1 0
0.10711 129.539 129.539 1 1 0
0.107112 129.537 129.537 1 1 0
0.107114 129.535 129.535 1 1 0
0.107116 129.532 129.532 1 1 0
0.107118 129.53 129.53 1 1 0
0.107121 129.527 129.527 1 1 0
0.107123 129.525 129.525 1 1 0
0.107125 129.523 129.523 1 1 0
0.107127 129.52 129.52 1 1 0
0.107129 129.518 129.518 1 1 0
0.107131 129.515 129.515 1 1 0
0.107134 129.513 129.513 1 1 0
0.107136 129.511 129.511 1 1 0
0.107138 129.508 129.508 1 1 0
0.10714 129.506 129.506 1 1 0
0.107142 129.503 129.503 1 1 0
0.107144 129.501 129.501 1 1 0
0.107147 129.498 129.498 1 1 0
0.107149 129.496 129.496 1 1 0
0.107151 129.494 129.494 1 1 0
0.107153 129.491 129.491 1 1 0
0.107155 129.489 129.489 1 1 0
0.107157 129.486 129.486 1 1 0
0.10716 129.484 129.484 1 1 0
0.107162 129.482 129.482 1 1 0
0.107164 129.479 129.479 1 1 0
0.107166 129.477 129.477 1 1 0
0.107168 129.474 129.474 1 1 0
0.107171 129.472 129.472 1 1 0
0.107173 129.47 129.47 1 1 0
0.107175 129.467 129.467 1 1 0
0.107177 129.465 129.465 1 1 0
0.107179 129.462 129.462 1 1 0
0.107181 129.46 129.46 1 1 0
0.107184 129.458 129.458 1 1 0
0.107186 129.455 129.455 1 1 0
0.107188 129.453 129.453 1 1 0
0.10719 129.45 129.45 1 1 0
0.107192 129.448 129.448 1 1 0
0.107194 129.445 129.445 1 1 0
0.107197 129.443 129.443 1 1 0
0.107199 129.441 129.441 1 1 0
0.107201 129.438 129.438 1 1 0
0.107203 129.436 129.436 1 1 0
0.107205 129.433 129.433 1 1 0
0.107207 129.431 129.431 1 1 0
0.10721 129.429 129.429 1 1 0
0.107212 129.426 129.426 1 1 0
0.107214 129.424 129.424 1 1 0
0.107216 129.421 129.421 1 1 0
0.107218 129.419 129.419 1 1 0
0.10722 129.417 129.417 1 1 0
0.107223 129.414 129.414 1 1 0
0.107225 129.412 129.412 1 1 0
0.107227 129.409 129.409 1 1 0
0.107229 129.407 129.407 1 1 0
0.107231 129.404 129.404 1 1 0
0.107234 129.402 129.402 1 1 0
0.107236 129.4 129.4 1 1 0
0.107238 129.397 129.397 1 1 0
0.10724 129.395 129.395 1 1 0
0.107242 129.392 129.392 1 1 0
0.107244 129.39 129.39 1 1 0
0.107247 129.388 129.388 1 1 0
0.107249 129.385 129.385 1 1 0
0.107251 129.383 129.383 1 1 0
0.107253 129.38 129.38 1 1 0
0.107255 129.378 129.378 1 1 0
0.107257 129.376 129.376 1 1 0
0.10726 129.373 129.373 1 1 0
0.107262 129.371 129.371 1 1 0
0.107264 129.368 129.368 1 1 0
0.107266 129.366 129.366 1 1 0
0.107268 129.363 129.363 1 1 0
0.107271 129.361 129.361 1 1 0
0.107273 129.359 129.359 1 1 0
0.107275 129.356 129.356 1 1 0
0.107277 129.354 129.354 1 1 0
0.107279 129.351 129.351 1 1 0
0.107281 129.349 129.349 1 1 0
0.107284 129.347 129.347 1 1 0
0.107286 129.344 129.344 1 1 0
0.107288 129.342 129.342 1 1 0
0.10729 129.339 129.339 1 1 0
0.107292 129.337 129.337 1 1 0
0.107294 129.335 129.335 1 1 0
0.107297 129.332 129.332 1 1 0
0.107299 129.33 129.33 1 1 0
0.107301 129.327 129.327 1 1 0
0.107303 129.325 129.325 1 1 0
0.107305 129.322 129.322 1 1 0
0.107308 129.32 129.32 1 1 0
0.10731 129.318 129.318 1 1 0
0.107312 129.315 129.315 1 1 0
0.107314 129.313 129.313 1 1 0
0.107316 129.31 129.31 1 1 0
0.107318 129.308 129.308 1 1 0
0.107321 129.306 129.306 1 1 0
0.107323 129.303 129.303 1 1 0
0.107325 129.301 129.301 1 1 0
0.107327 129.298 129.298 1 1 0
0.107329 129.296 129.296 1 1 0
0.107332 129.294 129.294 1 1 0
0.107334 129.291 129.291 1 1 0
0.107336 129.289 129.289 1 1 0
0.107338 129.286 129.286 1 1 0
0.10734 129.284 129.284 1 1 0
0.107342 129.281 129.281 1 1 0
0.107345 129.279 129.279 1 1 0
0.107347 129.277 129.277 1 1 0
0.107349 129.274 129.274 1 1 0
0.107351 129.272 129.272 1 1 0
0.107353 129.269 129.269 1 1 0
0.107355 129.267 129.267 1 1 0
0.107358 129.265 129.265 1 1 0
0.10736 129.262 129.262 1 1 0
0.107362 129.26 129.26 1 1 0
0.107364 129.257 129.257 1 1 0
0.107366 129.255 129.255 1 1 0
0.107369 129.253 129.253 1 1 0
0.107371 129.25 129.25 1 1 0
0.107373 129.248 129.248 1 1 0
0.107375 129.245 129.245 1 1 0
0.107377 129.243 129.243 1 1 0
0.107379 129.24 129.24 1 1 0
0.107382 129.238 129.238 1 1 0
0.107384 129.236 129.236 1 1 0
0.107386 129.233 129.233 1 1 0
0.107388 129.231 129.231 1 1 0
0.10739 129.228 129.228 1 1 0
0.107393 129.226 129.226 1 1 0
0.107395 129.224 129.224 1 1 0
0.107397 129.221 129.221 1 1 0
0.107399 129.219 129.219 1 1 0
0.107401 129.216 129.216 1 1 0
0.107403 129.214 129.214 1 1 0
0.107406 129.211 129.211 1 1 0
0.107408 129.209 129.209 1 1 0
0.10741 129.207 129.207 1 1 0
0.107412 129.204 129.204 1 1 0
0.107414 129.202 129.202 1 1 0
0.107417 129.199 129.199 1 1 0
0.107419 129.197 129.197 1 1 0
0.107421 129.195 129.195 1 1 0
0.107423 129.192 129.192 1 1 0
0.107425 129.19 129.19 1 1 0
0.107427 129.187 129.187 1 1 0
0.10743 129.185 129.185 1 1 0
0.107432 129.182 129.182 1 1 0
0.107434 129.18 129.18 1 1 0
0.107436 129.178 129.178 1 1 0
0.107438 129.175 129.175 1 1 0
0.107441 129.173 129.173 1 1 0
0.107443 129.17 129.17 1 1 0
0.107445 129.168 129.168 1 1 0
0.107447 129.166 129.166 1 1 0
0.107449 129.163 129.163 1 1 0
0.107452 129.161 129.161 1 1 0
0.107454 129.158 129.158 1 1 0
0.107456 129.156 129.156 1 1 0
0.107458 129.154 129.154 1 1 0
0.10746 129.151 129.151 1 1 0
0.107462 129.149 129.149 1 1 0
0.107465 129.146 129.146 1 1 0
0.107467 129.144 129.144 1 1 0
0.107469 129.141 129.141 1 1 0
0.107471 129.139 129.139 1 1 0
0.107473 129.137 129.137 1 1 0
0.107476 129.134 129.134 1 1 0
0.107478 129.132 129.132 1 1 0
0.10748 129.129 129.129 1 1 0
0.107482 129.127 129.127 1 1 0
0.107484 129.125 129.125 1 1 0
0.107486 129.122 129.122 1 1 0
0.107489 129.12 129.12 1 1 0
0.107491 129.117 129.117 1 1 0
0.107493 129.115 129.115 1 1 0
0.107495 129.112 129.112 1 1 0
0.107497 129.11 129.11 1 1 0
0.1075 129.108 129.108 1 1 0
0.107502 129.105 129.105 1 1 0
0.107504 129.103 129.103 1 1 0
0.107506 129.1 129.1 1 1 0
0.107508 129.098 129.098 1 1 0
0.107511 129.096 129.096 1 1 0
0.107513 129.093 129.093 1 1 0
0.107515 129.091 129.091 1 1 0
0.107517 129.088 129.088 1 1 0
0.107519 129.086 129.086 1 1 0
0.107521 129.083 129.083 1 1 0
0.107524 129.081 129.081 1 1 0
0.107526 129.079 129.079 1 1 0
0.107528 129.076 129.076 1 1 0
0.10753 129.074 129.074 1 1 0
0.107532 129.071 129.071 1 1 0
0.107535 129.069 129.069 1 1 0
0.107537 129.067 129.067 1 1 0
0.107539 129.064 129.064 1 1 0
0.107541 129.062 129.062 1 1 0
0.107543 129.059 129.059 1 1 0
0.107546 129.057 129.057 1 1 0
0.107548 129.054 129.054 1 1 0
0.10755 129.052 129.052 1 1 0
0.107552 129.05 129.05 1 1 0
0.107554 129.047 129.047 1 1 0
0.107557 129.045 129.045 1 1 0
0.107559 129.042 129.042 1 1 0
0.107561 129.04 129.04 1 1 0
0.107563 129.038 129.038 1 1 0
0.107565 129.035 129.035 1 1 0
0.107567 129.033 129.033 1 1 0
0.10757 129.03 129.03 1 1 0
0.107572 129.028 129.028 1 1 0
0.107574 129.025 129.025 1 1 0
0.107576 129.023 129.023 1 1 0
0.107578 129.021 129.021 1 1 0
0.107581 129.018 129.018 1 1 0
0.107583 129.016 129.016 1 1 0
0.107585 129.013 129.013 1 1 0
0.107587 129.011 129.011 1 1 0
0.107589 129.009 129.009 1 1 0
0.107592 129.006 129.006 1 1 0
0.107594 129.004 129.004 1 1 0
0.107596 129.001 129.001 1 1 0
0.107598 128.999 128.999 1 1 0
0.1076 128.996 128.996 1 1 0
0.107603 128.994 128.994 1 1 0
0.107605 128.992 128.992 1 1 0
0.107607 128.989 128.989 1 1 0
0.107609 128.987 128.987 1 1 0
0.107611 128.984 128.984 1 1 0
0.107614 128.982 128.982 1 1 0
0.107616 128.98 128.98 1 1 0
0.107618 128.977 128.977 1 1 0
0.10762 128.975 128.975 1 1 0
0.107622 128.972 128.972 1 1 0
0.107624 128.97 128.97 1 1 0
0.107627 128.967 128.967 1 1 0
0.107629 128.965 128.965 1 1 0
0.107631 128.963 128.963 1 1 0
0.107633 128.96 128.96 1 1 0
0.107635 128.958 128.958 1 1 0
0.107638 128.955 128.955 1 1 0
0.10764 128.953 128.953 1 1 0
0.107642 128.95 128.95 1 1 0
0.107644 128.948 128.948 1 1 0
0.107646 128.946 128.946 1 1 0
0.107649 128.943 128.943 1 1 0
0.107651 128.941 128.941 1 1 0
0.107653 128.938 128.938 1 1 0
0.107655 128.936 128.936 1 1 0
0.107657 128.934 128.934 1 1 0
0.10766 128.931 128.931 1 1 0
0.107662 128.929 128.929 1 1 0
0.107664 128.926 128.926 1 1 0
0.107666 128.924 128.924 1 1 0
0.107668 128.921 128.921 1 1 0
0.107671 128.919 128.919 1 1 0
0.107673 128.917 128.917 1 1 0
0.107675 128.914 128.914 1 1 0
0.107677 128.912 128.912 1 1 0
0.107679 128.909 128.909 1 1 0
0.107682 128.907 128.907 1 1 0
0.107684 128.905 128.905 1 1 0
0.107686 128.902 128.902 1 1 0
0.107688 128.9 128.9 1 1 0
0.10769 128.897 128.897 1 1 0
0.107693 128.895 128.895 1 1 0
0.107695 128.892 128.892 1 1 0
0.107697 128.89 128.89 1 1 0
0.107699 128.888 128.888 1 1 0
0.107701 128.885 128.885 1 1 0
0.107704 128.883 128.883 1 1 0
0.107706 128.88 128.88 1 1 0
0.107708 128.878 128.878 1 1 0
0.10771 128.875 128.875 1 1 0
0.107712 128.873 128.873 1 1 0
0.107714 128.871 128.871 1 1 0
0.107717 128.868 128.868 1 1 0
0.107719 128.866 128.866 1 1 0
0.107721 128.863 128.863 1 1 0
0.107723 128.861 128.861 1 1 0
0.107725 128.859 128.859 1 1 0
0.107728 128.856 128.856 1 1 0
0.10773 128.854 128.854 1 1 0
0.107732 128.851 128.851 1 1 0
0.107734 128.849 128.849 1 1 0
0.107736 128.846 128.846 1 1 0
0.107739 128.844 128.844 1 1 0
0.107741 128.842 128.842 1 1 0
0.107743 128.839 128.839 1 1 0
0.107745 128.837 128.837 1 1 0
0.107747 128.834 128.834 1 1 0
0.10775 128.832 128.832 1 1 0
0.107752 128.829 128.829 1 1 0
0.107754 128.827 128.827 1 1 0
0.107756 128.825 128.825 1 1 0
0.107758 128.822 128.822 1 1 0
0.107761 128.82 128.82 1 1 0
0.107763 128.817 128.817 1 1 0
0.107765 128.815 128.815 1 1 0
0.107767 128.813 128.813 1 1 0
0.107769 128.81 128.81 1 1 0
0.107772 128.808 128.808 1 1 0
0.107774 128.805 128.805 1 1 0
0.107776 128.803 128.803 1 1 0
0.107778 128.8 128.8 1 1 0
0.10778 128.798 128.798 1 1 0
0.107783 128.796 128.796 1 1 0
0.107785 128.793 128.793 1 1 0
0.107787 128.791 128.791 1 1 0
0.107789 128.788 128.788 1 1 0
0.107791 128.786 128.786 1 1 0
0.107794 128.783 128.783 1 1 0
0.107796 128.781 128.781 1 1 0
0.107798 128.779 128.779 1 1 0
0.1078 128.776 128.776 1 1 0
0.107802 128.774 128.774 1 1 0
0.107805 128.771 128.771 1 1 0
0.107807 128.769 128.769 1 1 0
0.107809 128.767 128.767 1 1 0
0.107811 128.764 128.764 1 1 0
0.107813 128.762 128.762 1 1 0
0.107816 128.759 128.759 1 1 0
0.107818 128.757 128.757 1 1 0
0.10782 128.754 128.754 1 1 0
0.107822 128.752 128.752 1 1 0
0.107825 128.75 128.75 1 1 0
0.107827 128.747 128.747 1 1 0
0.107829 128.745 128.745 1 1 0
0.107831 128.742 128.742 1 1 0
0.107833 128.74 128.74 1 1 0
0.107836 128.737 128.737 1 1 0
0.107838 128.735 128.735 1 1 0
0.10784 128.733 128.733 1 1 0
0.107842 128.73 128.73 1 1 0
0.107844 128.728 128.728 1 1 0
0.107847 128.725 128.725 1 1 0
0.107849 128.723 128.723 1 1 0
0.107851 128.721 128.721 1 1 0
0.107853 128.718 128.718 1 1 0
0.107855 128.716 128.716 1 1 0
0.107858 128.713 128.713 1 1 0
0.10786 128.711 128.711 1 1 0
0.107862 128.708 128.708 1 1 0
0.107864 128.706 128.706 1 1 0
0.107866 128.704 128.704 1 1 0
0.107869 128.701 128.701 1 1 0
0.107871 128.699 128.699 1 1 0
0.107873 128.696 128.696 1 1 0
0.107875 128.694 128.694 1 1 0
0.107877 128.691 128.691 1 1 0
0.10788 128.689 128.689 1 1 0
0.107882 128.687 128.687 1 1 0
0.107884 128.684 128.684 1 1 0
0.107886 128.682 128.682 1 1 0
0.107888 128.679 128.679 1 1 0
0.107891 128.677 128.677 1 1 0
0.107893 128.674 128.674 1 1 0
0.107895 128.672 128.672 1 1 0
0.107897 128.67 128.67 1 1 0
0.107899 128.667 128.667 1 1 0
0.107902 128.665 128.665 1 1 0
0.107904 128.662 128.662 1 1 0
0.107906 128.66 128.66 1 1 0
0.107908 128.658 128.658 1 1 0
0.107911 128.655 128.655 1 1 0
0.107913 128.653 128.653 1 1 0
0.107915 128.65 128.65 1 1 0
0.107917 128.648 128.648 1 1 0
0.107919 128.645 128.645 1 1 0
0.107922 128.643 128.643 1 1 0
0.107924 128.641 128.641 1 1 0
0.107926 128.638 128.638 1 1 0
0.107928 128.636 128.636 1 1 0
0.10793 128.633 128.633 1 1 0
0.107933 128.631 128.631 1 1 0
0.107935 128.628 128.628 1 1 0
0.107937 128.626 128.626 1 1 0
0.107939 128.624 128.624 1 1 0
0.107941 128.621 128.621 1 1 0
0.107944 128.619 128.619 1 1 0
0.107946 128.616 128.616 1 1 0
0.107948 128.614 128.614 1 1 0
0.10795 128.611 128.611 1 1 0
0.107952 128.609 128.609 1 1 0
0.107955 128.607 128.607 1 1 0
0.107957 128.604 128.604 1 1 0
0.107959 128.602 128.602 1 1 0
0.107961 128.599 128.599 1 1 0
0.107964 128.597 128.597 1 1 0
0.107966 128.594 128.594 1 1 0
0.107968 128.592 128.592 1 1 0
0.10797 128.59 128.59 1 1 0
0.107972 128.587 128.587 1 1 0
0.107975 128.585 128.585 1 1 0
0.107977 128.582 128.582 1 1 0
0.107979 128.58 128.58 1 1 0
0.107981 128.578 128.578 1 1 0
0.107983 128.575 128.575 1 1 0
0.107986 128.573 128.573 1 1 0
0.107988 128.57 128.57 1 1 0
0.10799 128.568 128.568 1 1 0
0.107992 128.565 128.565 1 1 0
0.107994 128.563 128.563 1 1 0
0.107997 128.561 128.561 1 1 0
0.107999 128.558 128.558 1 1 0
0.108001 128.556 128.556 1 1 0
0.108003 128.553 128.553 1 1 0
0.108006 128.551 128.551 1 1 0
0.108008 128.548 128.548 1 1 0
0.10801 128.546 128.546 1 1 0
0.108012 128.544 128.544 1 1 0
0.108014 128.541 128.541 1 1 0
0.108017 128.539 128.539 1 1 0
0.108019 128.536 128.536 1 1 0
0.108021 128.534 128.534 1 1 0
0.108023 128.531 128.531 1 1 0
0.108025 128.529 128.529 1 1 0
0.108028 128.527 128.527 1 1 0
0.10803 128.524 128.524 1 1 0
0.108032 128.522 128.522 1 1 0
0.108034 128.519 128.519 1 1 0
0.108037 128.517 128.517 1 1 0
0.108039 128.514 128.514 1 1 0
0.108041 128.512 128.512 1 1 0
0.108043 128.51 128.51 1 1 0
0.108045 128.507 128.507 1 1 0
0.108048 128.505 128.505 1 1 0
0.10805 128.502 128.502 1 1 0
0.108052 128.5 128.5 1 1 0
0.108054 128.497 128.497 1 1 0
0.108056 128.495 128.495 1 1 0
0.108059 128.493 128.493 1 1 0
0.108061 128.49 128.49 1 1 0
0.108063 128.488 128.488 1 1 0
0.108065 128.485 128.485 1 1 0
0.108068 128.483 128.483 1 1 0
0.10807 128.48 128.48 1 1 0
0.108072 128.478 128.478 1 1 0
0.108074 128.476 128.476 1 1 0
0.108076 128.473 128.473 1 1 0
0.108079 128.471 128.471 1 1 0
0.108081 128.468 128.468 1 1 0
0.108083 128.466 128.466 1 1 0
0.108085 128.463 128.463 1 1 0
0.108087 128.461 128.461 1 1 0
0.10809 128.459 128.459 1 1 0
0.108092 128.456 128.456 1 1 0
0.108094 128.454 128.454 1 1 0
0.108096 128.451 128.451 1 1 0
0.108099 128.449 128.449 1 1 0
0.108101 128.446 128.446 1 1 0
0.108103 128.444 128.444 1 1 0
0.108105 128.442 128.442 1 1 0
0.108107 128.439 128.439 1 1 0
0.10811 128.437 128.437 1 1 0
0.108112 128.434 128.434 1 1 0
0.108114 128.432 128.432 1 1 0
0.108116 128.43 128.43 1 1 0
0.108118 128.427 128.427 1 1 0
0.108121 128.425 128.425 1 1 0
0.108123 128.422 128.422 1 1 0
0.108125 128.42 128.42 1 1 0
0.108127 128.417 128.417 1 1 0
0.10813 128.415 128.415 1 1 0
0.108132 128.413 128.413 1 1 0
0.108134 128.41 128.41 1 1 0
0.108136 128.408 128.408 1 1 0
0.108138 128.405 128.405 1 1 0
0.108141 128.403 128.403 1 1 0
0.108143 128.4 128.4 1 1 0
0.108145 128.398 128.398 1 1 0
0.108147 128.396 128.396 1 1 0
0.10815 128.393 128.393 1 1 0
0.108152 128.391 128.391 1 1 0
0.108154 128.388 128.388 1 1 0
0.108156 128.386 128.386 1 1 0
0.108158 128.383 128.383 1 1 0
0.108161 128.381 128.381 1 1 0
0.108163 128.379 128.379 1 1 0
0.108165 128.376 128.376 1 1 0
0.108167 128.374 128.374 1 1 0
0.10817 128.371 128.371 1 1 0
0.108172 128.369 128.369 1 1 0
0.108174 128.366 128.366 1 1 0
0.108176 128.364 128.364 1 1 0
0.108178 128.362 128.362 1 1 0
0.108181 128.359 128.359 1 1 0
0.108183 128.357 128.357 1 1 0
0.108185 128.354 128.354 1 1 0
0.108187 128.352 128.352 1 1 0
0.10819 128.349 128.349 1 1 0
0.108192 128.347 128.347 1 1 0
0.108194 128.345 128.345 1 1 0
0.108196 128.342 128.342 1 1 0
0.108198 128.34 128.34 1 1 0
0.108201 128.337 128.337 1 1 0
0.108203 128.335 128.335 1 1 0
0.108205 128.332 128.332 1 1 0
0.108207 128.33 128.33 1 1 0
0.10821 128.327 128.327 1 1 0
0.108212 128.325 128.325 1 1 0
0.108214 128.323 128.323 1 1 0
0.108216 128.32 128.32 1 1 0
0.108218 128.318 128.318 1 1 0
0.108221 128.315 128.315 1 1 0
0.108223 128.313 128.313 1 1 0
0.108225 128.31 128.31 1 1 0
0.108227 128.308 128.308 1 1 0
0.10823 128.306 128.306 1 1 0
0.108232 128.303 128.303 1 1 0
0.108234 128.301 128.301 1 1 0
0.108236 128.298 128.298 1 1 0
0.108238 128.296 128.296 1 1 0
0.108241 128.293 128.293 1 1 0
0.108243 128.291 128.291 1 1 0
0.108245 128.289 128.289 1 1 0
0.108247 128.286 128.286 1 1 0
0.10825 128.284 128.284 1 1 0
0.108252 128.281 128.281 1 1 0
0.108254 128.279 128.279 1 1 0
0.108256 128.276 128.276 1 1 0
0.108258 128.274 128.274 1 1 0
0.108261 128.272 128.272 1 1 0
0.108263 128.269 128.269 1 1 0
0.108265 128.267 128.267 1 1 0
0.108267 128.264 128.264 1 1 0
0.10827 128.262 128.262 1 1 0
0.108272 128.259 128.259 1 1 0
0.108274 128.257 128.257 1 1 0
0.108276 128.255 128.255 1 1 0
0.108278 128.252 128.252 1 1 0
0.108281 128.25 128.25 1 1 0
0.108283 128.247 128.247 1 1 0
0.108285 128.245 128.245 1 1 0
0.108287 128.242 128.242 1 1 0
0.10829 128.24 128.24 1 1 0
0.108292 128.238 128.238 1 1 0
0.108294 128.235 128.235 1 1 0
0.108296 128.233 128.233 1 1 0
0.108298 128.23 128.23 1 1 0
0.108301 128.228 128.228 1 1 0
0.108303 128.225 128.225 1 1 0
0.108305 128.223 128.223 1 1 0
0.108307 128.221 128.221 1 1 0
0.10831 128.218 128.218 1 1 0
0.108312 128.216 128.216 1 1 0
0.108314 128.213 128.213 1 1 0
0.108316 128.211 128.211 1 1 0
0.108319 128.208 128.208 1 1 0
0.108321 128.206 128.206 1 1 0
0.108323 128.204 128.204 1 1 0
0.108325 128.201 128.201 1 1 0
0.108327 128.199 128.199 1 1 0
0.10833 128.196 128.196 1 1 0
0.108332 128.194 128.194 1 1 0
0.108334 128.191 128.191 1 1 0
0.108336 128.189 128.189 1 1 0
0.108339 128.187 128.187 1 1 0
0.108341 128.184 128.184 1 1 0
0.108343 128.182 128.182 1 1 0
0.108345 128.179 128.179 1 1 0
0.108347 128.177 128.177 1 1 0
0.10835 128.174 128.174 1 1 0
0.108352 128.172 128.172 1 1 0
0.108354 128.169 128.169 1 1 0
0.108356 128.167 128.167 1 1 0
0.108359 128.165 128.165 1 1 0
0.108361 128.162 128.162 1 1 0
0.108363 128.16 128.16 1 1 0
0.108365 128.157 128.157 1 1 0
0.108368 128.155 128.155 1 1 0
0.10837 128.152 128.152 1 1 0
0.108372 128.15 128.15 1 1 0
0.108374 128.148 128.148 1 1 0
0.108376 128.145 128.145 1 1 0
0.108379 128.143 128.143 1 1 0
0.108381 128.14 128.14 1 1 0
0.108383 128.138 128.138 1 1 0
0.108385 128.135 128.135 1 1 0
0.108388 128.133 128.133 1 1 0
0.10839 128.131 128.131 1 1 0
0.108392 128.128 128.128 1 1 0
0.108394 128.126 128.126 1 1 0
0.108397 128.123 128.123 1 1 0
0.108399 128.121 128.121 1 1 0
0.108401 128.118 128.118 1 1 0
0.108403 128.116 128.116 1 1 0
0.108405 128.114 128.114 1 1 0
0.108408 128.111 128.111 1 1 0
0.10841 128.109 128.109 1 1 0
0.108412 128.106 128.106 1 1 0
0.108414 128.104 128.104 1 1 0
0.108417 128.101 128.101 1 1 0
0.108419 128.099 128.099 1 1 0
0.108421 128.096 128.096 1 1 0
0.108423 128.094 128.094 1 1 0
0.108426 128.092 128.092 1 1 0
0.108428 128.089 128.089 1 1 0
0.10843 128.087 128.087 1 1 0
0.108432 128.084 128.084 1 1 0
0.108435 128.082 128.082 1 1 0
0.108437 128.079 128.079 1 1 0
0.108439 128.077 128.077 1 1 0
0.108441 128.075 128.075 1 1 0
0.108443 128.072 128.072 1 1 0
0.108446 128.07 128.07 1 1 0
0.108448 128.067 128.067 1 1 0
0.10845 128.065 128.065 1 1 0
0.108452 128.062 128.062 1 1 0
0.108455 128.06 128.06 1 1 0
0.108457 128.058 128.058 1 1 0
0.108459 128.055 128.055 1 1 0
0.108461 128.053 128.053 1 1 0
0.108464 128.05 128.05 1 1 0
0.108466 128.048 128.048 1 1 0
0.108468 128.045 128.045 1 1 0
0.10847 128.043 128.043 1 1 0
0.108472 128.041 128.041 1 1 0
0.108475 128.038 128.038 1 1 0
0.108477 128.036 128.036 1 1 0
0.108479 128.033 128.033 1 1 0
0.108481 128.031 128.031 1 1 0
0.108484 128.028 128.028 1 1 0
0.108486 128.026 128.026 1 1 0
0.108488 128.023 128.023 1 1 0
0.10849 128.021 128.021 1 1 0
0.108493 128.019 128.019 1 1 0
0.108495 128.016 128.016 1 1 0
0.108497 128.014 128.014 1 1 0
0.108499 128.011 128.011 1 1 0
0.108502 128.009 128.009 1 1 0
0.108504 128.006 128.006 1 1 0
0.108506 128.004 128.004 1 1 0
0.108508 128.002 128.002 1 1 0
0.10851 127.999 127.999 1 1 0
0.108513 127.997 127.997 1 1 0
0.108515 127.994 127.994 1 1 0
0.108517 127.992 127.992 1 1 0
0.108519 127.989 127.989 1 1 0
0.108522 127.987 127.987 1 1 0
0.108524 127.984 127.984 1 1 0
0.108526 127.982 127.982 1 1 0
0.108528 127.98 127.98 1 1 0
0.108531 127.977 127.977 1 1 0
0.108533 127.975 127.975 1 1 0
0.108535 127.972 127.972 1 1 0
0.108537 127.97 127.97 1 1 0
0.10854 127.967 127.967 1 1 0
0.108542 127.965 127.965 1 1 0
0.108544 127.963 127.963 1 1 0
0.108546 127.96 127.96 1 1 0
0.108549 127.958 127.958 1 1 0
0.108551 127.955 127.955 1 1 0
0.108553 127.953 127.953 1 1 0
0.108555 127.95 127.95 1 1 0
0.108558 127.948 127.948 1 1 0
0.10856 127.946 127.946 1 1 0
0.108562 127.943 127.943 1 1 0
0.108564 127.941 127.941 1 1 0
0.108566 127.938 127.938 1 1 0
0.108569 127.936 127.936 1 1 0
0.108571 127.933 127.933 1 1 0
0.108573 127.931 127.931 1 1 0
0.108575 127.928 127.928 1 1 0
0.108578 127.926 127.926 1 1 0
0.10858 127.924 127.924 1 1 0
0.108582 127.921 127.921 1 1 0
0.108584 127.919 127.919 1 1 0
0.108587 127.916 127.916 1 1 0
0.108589 127.914 127.914 1 1 0
0.108591 127.911 127.911 1 1 0
0.108593 127.909 127.909 1 1 0
0.108596 127.907 127.907 1 1 0
0.108598 127.904 127.904 1 1 0
0.1086 127.902 127.902 1 1 0
0.108602 127.899 127.899 1 1 0
0.108605 127.897 127.897 1 1 0
0.108607 127.894 127.894 1 1 0
0.108609 127.892 127.892 1 1 0
0.108611 127.889 127.889 1 1 0
0.108614 127.887 127.887 1 1 0
0.108616 127.885 127.885 1 1 0
0.108618 127.882 127.882 1 1 0
0.10862 127.88 127.88 1 1 0
0.108622 127.877 127.877 1 1 0
0.108625 127.875 127.875 1 1 0
0.108627 127.872 127.872 1 1 0
0.108629 127.87 127.87 1 1 0
0.108631 127.868 127.868 1 1 0
0.108634 127.865 127.865 1 1 0
0.108636 127.863 127.863 1 1 0
0.108638 127.86 127.86 1 1 0
0.10864 127.858 127.858 1 1 0
0.108643 127.855 127.855 1 1 0
0.108645 127.853 127.853 1 1 0
0.108647 127.85 127.85 1 1 0
0.108649 127.848 127.848 1 1 0
0.108652 127.846 127.846 1 1 0
0.108654 127.843 127.843 1 1 0
0.108656 127.841 127.841 1 1 0
0.108658 127.838 127.838 1 1 0
0.108661 127.836 127.836 1 1 0
0.108663 127.833 127.833 1 1 0
0.108665 127.831 127.831 1 1 0
0.108667 127.829 127.829 1 1 0
0.10867 127.826 127.826 1 1 0
0.108672 127.824 127.824 1 1 0
0.108674 127.821 127.821 1 1 0
0.108676 127.819 127.819 1 1 0
0.108679 127.816 127.816 1 1 0
0.108681 127.814 127.814 1 1 0
0.108683 127.811 127.811 1 1 0
0.108685 127.809 127.809 1 1 0
0.108688 127.807 127.807 1 1 0
0.10869 127.804 127.804 1 1 0
0.108692 127.802 127.802 1 1 0
0.108694 127.799 127.799 1 1 0
0.108697 127.797 127.797 1 1 0
0.108699 127.794 127.794 1 1 0
0.108701 127.792 127.792 1 1 0
0.108703 127.789 127.789 1 1 0
0.108706 127.787 127.787 1 1 0
0.108708 127.785 127.785 1 1 0
0.10871 127.782 127.782 1 1 0
0.108712 127.78 127.78 1 1 0
0.108715 127.777 127.777 1 1 0
0.108717 127.775 127.775 1 1 0
0.108719 127.772 127.772 1 1 0
0.108721 127.77 127.77 1 1 0
0.108724 127.768 127.768 1 1 0
0.108726 127.765 127.765 1 1 0
0.108728 127.763 127.763 1 1 0
0.10873 127.76 127.76 1 1 0
0.108733 127.758 127.758 1 1 0
0.108735 127.755 127.755 1 1 0
0.108737 127.753 127.753 1 1 0
0.108739 127.75 127.75 1 1 0
0.108742 127.748 127.748 1 1 0
0.108744 127.746 127.746 1 1 0
0.108746 127.743 127.743 1 1 0
0.108748 127.741 127.741 1 1 0
0.108751 127.738 127.738 1 1 0
0.108753 127.736 127.736 1 1 0
0.108755 127.733 127.733 1 1 0
0.108757 127.731 127.731 1 1 0
0.10876 127.728 127.728 1 1 0
0.108762 127.726 127.726 1 1 0
0.108764 127.724 127.724 1 1 0
0.108766 127.721 127.721 1 1 0
0.108769 127.719 127.719 1 1 0
0.108771 127.716 127.716 1 1 0
0.108773 127.714 127.714 1 1 0
0.108775 127.711 127.711 1 1 0
0.108778 127.709 127.709 1 1 0
0.10878 127.707 127.707 1 1 0
0.108782 127.704 127.704 1 1 0
0.108784 127.702 127.702 1 1 0
0.108787 127.699 127.699 1 1 0
0.108789 127.697 127.697 1 1 0
0.108791 127.694 127.694 1 1 0
0.108793 127.692 127.692 1 1 0
0.108796 127.689 127.689 1 1 0
0.108798 127.687 127.687 1 1 0
0.1088 127.685 127.685 1 1 0
0.108802 127.682 127.682 1 1 0
0.108805 127.68 127.68 1 1 0
0.108807 127.677 127.677 1 1 0
0.108809 127.675 127.675 1 1 0
0.108811 127.672 127.672 1 1 0
0.108814 127.67 127.67 1 1 0
0.108816 127.667 127.667 1 1 0
0.108818 127.665 127.665 1 1 0
0.10882 127.663 127.663 1 1 0
0.108823 127.66 127.66 1 1 0
0.108825 127.658 127.658 1 1 0
0.108827 127.655 127.655 1 1 0
0.108829 127.653 127.653 1 1 0
0.108832 127.65 127.65 1 1 0
0.108834 127.648 127.648 1 1 0
0.108836 127.645 127.645 1 1 0
0.108838 127.643 127.643 1 1 0
0.108841 127.641 127.641 1 1 0
0.108843 127.638 127.638 1 1 0
0.108845 127.636 127.636 1 1 0
0.108847 127.633 127.633 1 1 0
0.10885 127.631 127.631 1 1 0
0.108852 127.628 127.628 1 1 0
0.108854 127.626 127.626 1 1 0
0.108856 127.623 127.623 1 1 0
0.108859 127.621 127.621 1 1 0
0.108861 127.619 127.619 1 1 0
0.108863 127.616 127.616 1 1 0
0.108865 127.614 127.614 1 1 0
0.108868 127.611 127.611 1 1 0
