0.114847 6.35875 6.35875 1 1 0
0.11485 6.35888 6.35888 1 1 0
0.114852 6.35901 6.35901 1 1 0
0.114855 6.35913 6.35913 1 1 0
0.114857 6.35926 6.35926 1 1 0
0.11486 6.35939 6.35939 1 1 0
0.114863 6.35952 6.35952 1 1 0
0.114865 6.35965 6.35965 1 1 0
0.114868 6.35978 6.35978 1 1 0
0.11487 6.35991 6.35991 1 1 0
0.114873 6.36003 6.36003 1 1 0
0.114876 6.36016 6.36016 1 1 0
0.114878 6.36029 6.36029 1 1 0
0.114881 6.36042 6.36042 1 1 0
0.114883 6.36055 6.36055 1 1 0
0.114886 6.36068 6.36068 1 1 0
0.114889 6.36081 6.36081 1 1 0
0.114891 6.36094 6.36094 1 1 0
0.114894 6.36106 6.36106 1 1 0
0.114896 6.36119 6.36119 1 1 0
0.114899 6.36132 6.36132 1 1 0
0.114902 6.36145 6.36145 1 1 0
0.114904 6.36158 6.36158 1 1 0
0.114907 6.36171 6.36171 1 1 0
0.114909 6.36184 6.36184 1 1 0
0.114912 6.36197 6.36197 1 1 0
0.114915 6.36209 6.36209 1 1 0
0.114917 6.36222 6.36222 1 1 0
0.11492 6.36235 6.36235 1 1 0
0.114922 6.36248 6.36248 1 1 0
0.114925 6.36261 6.36261 1 1 0
0.114928 6.36274 6.36274 1 1 0
0.11493 6.36287 6.36287 1 1 0
0.114933 6.36299 6.36299 1 1 0
0.114935 6.36312 6.36312 1 1 0
0.114938 6.36325 6.36325 1 1 0
0.114941 6.36338 6.36338 1 1 0
0.114943 6.36351 6.36351 1 1 0
0.114946 6.36364 6.36364 1 1 0
0.114948 6.36377 6.36377 1 1 0
0.114951 6.3639 6.3639 1 1 0
0.114954 6.36402 6.36402 1 1 0
0.114956 6.36415 6.36415 1 1 0
0.114959 6.36428 6.36428 1 1 0
0.114962 6.36441 6.36441 1 1 0
0.114964 6.36454 6.36454 1 1 0
0.114967 6.36467 6.36467 1 1 0
0.114969 6.3648 6.3648 1 1 0
0.114972 6.36493 6.36493 1 1 0
0.114975 6.36505 6.36505 1 1 0
0.114977 6.36518 6.36518 1 1 0
0.11498 6.36531 6.36531 1 1 0
0.114982 6.36544 6.36544 1 1 0
0.114985 6.36557 6.36557 1 1 0
0.114988 6.3657 6.3657 1 1 0
0.11499 6.36583 6.36583 1 1 0
0.114993 6.36596 6.36596 1 1 0
0.114995 6.36608 6.36608 1 1 0
0.114998 6.36621 6.36621 1 1 0
0.115001 6.36634 6.36634 1 1 0
0.115003 6.36647 6.36647 1 1 0
0.115006 6.3666 6.3666 1 1 0
0.115008 6.36673 6.36673 1 1 0
0.115011 6.36686 6.36686 1 1 0
0.115014 6.36699 6.36699 1 1 0
0.115016 6.36711 6.36711 1 1 0
0.115019 6.36724 6.36724 1 1 0
0.115022 6.36737 6.36737 1 1 0
0.115024 6.3675 6.3675 1 1 0
0.115027 6.36763 6.36763 1 1 0
0.115029 6.36776 6.36776 1 1 0
0.115032 6.36789 6.36789 1 1 0
0.115035 6.36802 6.36802 1 1 0
0.115037 6.36814 6.36814 1 1 0
0.11504 6.36827 6.36827 1 1 0
0.115042 6.3684 6.3684 1 1 0
0.115045 6.36853 6.36853 1 1 0
0.115048 6.36866 6.36866 1 1 0
0.11505 6.36879 6.36879 1 1 0
0.115053 6.36892 6.36892 1 1 0
0.115056 6.36905 6.36905 1 1 0
0.115058 6.36918 6.36918 1 1 0
0.115061 6.3693 6.3693 1 1 0
0.115063 6.36943 6.36943 1 1 0
0.115066 6.36956 6.36956 1 1 0
0.115069 6.36969 6.36969 1 1 0
0.115071 6.36982 6.36982 1 1 0
0.115074 6.36995 6.36995 1 1 0
0.115076 6.37008 6.37008 1 1 0
0.115079 6.37021 6.37021 1 1 0
0.115082 6.37033 6.37033 1 1 0
0.115084 6.37046 6.37046 1 1 0
0.115087 6.37059 6.37059 1 1 0
0.11509 6.37072 6.37072 1 1 0
0.115092 6.37085 6.37085 1 1 0
0.115095 6.37098 6.37098 1 1 0
0.115097 6.37111 6.37111 1 1 0
0.1151 6.37124 6.37124 1 1 0
0.115103 6.37136 6.37136 1 1 0
0.115105 6.37149 6.37149 1 1 0
0.115108 6.37162 6.37162 1 1 0
0.11511 6.37175 6.37175 1 1 0
0.115113 6.37188 6.37188 1 1 0
0.115116 6.37201 6.37201 1 1 0
0.115118 6.37214 6.37214 1 1 0
0.115121 6.37227 6.37227 1 1 0
0.115124 6.37239 6.37239 1 1 0
0.115126 6.37252 6.37252 1 1 0
0.115129 6.37265 6.37265 1 1 0
0.115131 6.37278 6.37278 1 1 0
0.115134 6.37291 6.37291 1 1 0
0.115137 6.37304 6.37304 1 1 0
0.115139 6.37317 6.37317 1 1 0
0.115142 6.3733 6.3733 1 1 0
0.115145 6.37343 6.37343 1 1 0
0.115147 6.37355 6.37355 1 1 0
0.11515 6.37368 6.37368 1 1 0
0.115152 6.37381 6.37381 1 1 0
0.115155 6.37394 6.37394 1 1 0
0.115158 6.37407 6.37407 1 1 0
0.11516 6.3742 6.3742 1 1 0
0.115163 6.37433 6.37433 1 1 0
0.115165 6.37446 6.37446 1 1 0
0.115168 6.37458 6.37458 1 1 0
0.115171 6.37471 6.37471 1 1 0
0.115173 6.37484 6.37484 1 1 0
0.115176 6.37497 6.37497 1 1 0
0.115179 6.3751 6.3751 1 1 0
0.115181 6.37523 6.37523 1 1 0
0.115184 6.37536 6.37536 1 1 0
0.115186 6.37549 6.37549 1 1 0
0.115189 6.37562 6.37562 1 1 0
0.115192 6.37574 6.37574 1 1 0
0.115194 6.37587 6.37587 1 1 0
0.115197 6.376 6.376 1 1 0
0.1152 6.37613 6.37613 1 1 0
0.115202 6.37626 6.37626 1 1 0
0.115205 6.37639 6.37639 1 1 0
0.115207 6.37652 6.37652 1 1 0
0.11521 6.37665 6.37665 1 1 0
0.115213 6.37678 6.37678 1 1 0
0.115215 6.3769 6.3769 1 1 0
0.115218 6.37703 6.37703 1 1 0
0.115221 6.37716 6.37716 1 1 0
0.115223 6.37729 6.37729 1 1 0
0.115226 6.37742 6.37742 1 1 0
0.115228 6.37755 6.37755 1 1 0
0.115231 6.37768 6.37768 1 1 0
0.115234 6.37781 6.37781 1 1 0
0.115236 6.37793 6.37793 1 1 0
0.115239 6.37806 6.37806 1 1 0
0.115242 6.37819 6.37819 1 1 0
0.115244 6.37832 6.37832 1 1 0
0.115247 6.37845 6.37845 1 1 0
0.115249 6.37858 6.37858 1 1 0
0.115252 6.37871 6.37871 1 1 0
0.115255 6.37884 6.37884 1 1 0
0.115257 6.37897 6.37897 1 1 0
0.11526 6.37909 6.37909 1 1 0
0.115263 6.37922 6.37922 1 1 0
0.115265 6.37935 6.37935 1 1 0
0.115268 6.37948 6.37948 1 1 0
0.11527 6.37961 6.37961 1 1 0
0.115273 6.37974 6.37974 1 1 0
0.115276 6.37987 6.37987 1 1 0
0.115278 6.38 6.38 1 1 0
0.115281 6.38013 6.38013 1 1 0
0.115284 6.38025 6.38025 1 1 0
0.115286 6.38038 6.38038 1 1 0
0.115289 6.38051 6.38051 1 1 0
0.115292 6.38064 6.38064 1 1 0
0.115294 6.38077 6.38077 1 1 0
0.115297 6.3809 6.3809 1 1 0
0.115299 6.38103 6.38103 1 1 0
0.115302 6.38116 6.38116 1 1 0
0.115305 6.38129 6.38129 1 1 0
0.115307 6.38141 6.38141 1 1 0
0.11531 6.38154 6.38154 1 1 0
0.115313 6.38167 6.38167 1 1 0
0.115315 6.3818 6.3818 1 1 0
0.115318 6.38193 6.38193 1 1 0
0.11532 6.38206 6.38206 1 1 0
0.115323 6.38219 6.38219 1 1 0
0.115326 6.38232 6.38232 1 1 0
0.115328 6.38245 6.38245 1 1 0
0.115331 6.38257 6.38257 1 1 0
0.115334 6.3827 6.3827 1 1 0
0.115336 6.38283 6.38283 1 1 0
0.115339 6.38296 6.38296 1 1 0
0.115342 6.38309 6.38309 1 1 0
0.115344 6.38322 6.38322 1 1 0
0.115347 6.38335 6.38335 1 1 0
0.115349 6.38348 6.38348 1 1 0
0.115352 6.38361 6.38361 1 1 0
0.115355 6.38373 6.38373 1 1 0
0.115357 6.38386 6.38386 1 1 0
0.11536 6.38399 6.38399 1 1 0
0.115363 6.38412 6.38412 1 1 0
0.115365 6.38425 6.38425 1 1 0
0.115368 6.38438 6.38438 1 1 0
0.11537 6.38451 6.38451 1 1 0
0.115373 6.38464 6.38464 1 1 0
0.115376 6.38477 6.38477 1 1 0
0.115378 6.38489 6.38489 1 1 0
0.115381 6.38502 6.38502 1 1 0
0.115384 6.38515 6.38515 1 1 0
0.115386 6.38528 6.38528 1 1 0
0.115389 6.38541 6.38541 1 1 0
0.115392 6.38554 6.38554 1 1 0
0.115394 6.38567 6.38567 1 1 0
0.115397 6.3858 6.3858 1 1 0
0.115399 6.38593 6.38593 1 1 0
0.115402 6.38606 6.38606 1 1 0
0.115405 6.38618 6.38618 1 1 0
0.115407 6.38631 6.38631 1 1 0
0.11541 6.38644 6.38644 1 1 0
0.115413 6.38657 6.38657 1 1 0
0.115415 6.3867 6.3867 1 1 0
0.115418 6.38683 6.38683 1 1 0
0.115421 6.38696 6.38696 1 1 0
0.115423 6.38709 6.38709 1 1 0
0.115426 6.38722 6.38722 1 1 0
0.115429 6.38734 6.38734 1 1 0
0.115431 6.38747 6.38747 1 1 0
0.115434 6.3876 6.3876 1 1 0
0.115436 6.38773 6.38773 1 1 0
0.115439 6.38786 6.38786 1 1 0
0.115442 6.38799 6.38799 1 1 0
0.115444 6.38812 6.38812 1 1 0
0.115447 6.38825 6.38825 1 1 0
0.11545 6.38838 6.38838 1 1 0
0.115452 6.3885 6.3885 1 1 0
0.115455 6.38863 6.38863 1 1 0
0.115458 6.38876 6.38876 1 1 0
0.11546 6.38889 6.38889 1 1 0
0.115463 6.38902 6.38902 1 1 0
0.115465 6.38915 6.38915 1 1 0
0.115468 6.38928 6.38928 1 1 0
0.115471 6.38941 6.38941 1 1 0
0.115473 6.38954 6.38954 1 1 0
0.115476 6.38967 6.38967 1 1 0
0.115479 6.38979 6.38979 1 1 0
0.115481 6.38992 6.38992 1 1 0
0.115484 6.39005 6.39005 1 1 0
0.115487 6.39018 6.39018 1 1 0
0.115489 6.39031 6.39031 1 1 0
0.115492 6.39044 6.39044 1 1 0
0.115495 6.39057 6.39057 1 1 0
0.115497 6.3907 6.3907 1 1 0
0.1155 6.39083 6.39083 1 1 0
0.115502 6.39096 6.39096 1 1 0
0.115505 6.39108 6.39108 1 1 0
0.115508 6.39121 6.39121 1 1 0
0.11551 6.39134 6.39134 1 1 0
0.115513 6.39147 6.39147 1 1 0
0.115516 6.3916 6.3916 1 1 0
0.115518 6.39173 6.39173 1 1 0
0.115521 6.39186 6.39186 1 1 0
0.115524 6.39199 6.39199 1 1 0
0.115526 6.39212 6.39212 1 1 0
0.115529 6.39225 6.39225 1 1 0
0.115532 6.39237 6.39237 1 1 0
0.115534 6.3925 6.3925 1 1 0
0.115537 6.39263 6.39263 1 1 0
0.11554 6.39276 6.39276 1 1 0
0.115542 6.39289 6.39289 1 1 0
0.115545 6.39302 6.39302 1 1 0
0.115547 6.39315 6.39315 1 1 0
0.11555 6.39328 6.39328 1 1 0
0.115553 6.39341 6.39341 1 1 0
0.115555 6.39353 6.39353 1 1 0
0.115558 6.39366 6.39366 1 1 0
0.115561 6.39379 6.39379 1 1 0
0.115563 6.39392 6.39392 1 1 0
0.115566 6.39405 6.39405 1 1 0
0.115569 6.39418 6.39418 1 1 0
0.115571 6.39431 6.39431 1 1 0
0.115574 6.39444 6.39444 1 1 0
0.115577 6.39457 6.39457 1 1 0
0.115579 6.3947 6.3947 1 1 0
0.115582 6.39482 6.39482 1 1 0
0.115585 6.39495 6.39495 1 1 0
0.115587 6.39508 6.39508 1 1 0
0.11559 6.39521 6.39521 1 1 0
0.115592 6.39534 6.39534 1 1 0
0.115595 6.39547 6.39547 1 1 0
0.115598 6.3956 6.3956 1 1 0
0.1156 6.39573 6.39573 1 1 0
0.115603 6.39586 6.39586 1 1 0
0.115606 6.39599 6.39599 1 1 0
0.115608 6.39612 6.39612 1 1 0
0.115611 6.39624 6.39624 1 1 0
0.115614 6.39637 6.39637 1 1 0
0.115616 6.3965 6.3965 1 1 0
0.115619 6.39663 6.39663 1 1 0
0.115622 6.39676 6.39676 1 1 0
0.115624 6.39689 6.39689 1 1 0
0.115627 6.39702 6.39702 1 1 0
0.11563 6.39715 6.39715 1 1 0
0.115632 6.39728 6.39728 1 1 0
0.115635 6.39741 6.39741 1 1 0
0.115638 6.39753 6.39753 1 1 0
0.11564 6.39766 6.39766 1 1 0
0.115643 6.39779 6.39779 1 1 0
0.115646 6.39792 6.39792 1 1 0
0.115648 6.39805 6.39805 1 1 0
0.115651 6.39818 6.39818 1 1 0
0.115653 6.39831 6.39831 1 1 0
0.115656 6.39844 6.39844 1 1 0
0.115659 6.39857 6.39857 1 1 0
0.115661 6.3987 6.3987 1 1 0
0.115664 6.39882 6.39882 1 1 0
0.115667 6.39895 6.39895 1 1 0
0.115669 6.39908 6.39908 1 1 0
0.115672 6.39921 6.39921 1 1 0
0.115675 6.39934 6.39934 1 1 0
0.115677 6.39947 6.39947 1 1 0
0.11568 6.3996 6.3996 1 1 0
0.115683 6.39973 6.39973 1 1 0
0.115685 6.39986 6.39986 1 1 0
0.115688 6.39999 6.39999 1 1 0
0.115691 6.40012 6.40012 1 1 0
0.115693 6.40024 6.40024 1 1 0
0.115696 6.40037 6.40037 1 1 0
0.115699 6.4005 6.4005 1 1 0
0.115701 6.40063 6.40063 1 1 0
0.115704 6.40076 6.40076 1 1 0
0.115707 6.40089 6.40089 1 1 0
0.115709 6.40102 6.40102 1 1 0
0.115712 6.40115 6.40115 1 1 0
0.115715 6.40128 6.40128 1 1 0
0.115717 6.40141 6.40141 1 1 0
0.11572 6.40154 6.40154 1 1 0
0.115723 6.40166 6.40166 1 1 0
0.115725 6.40179 6.40179 1 1 0
0.115728 6.40192 6.40192 1 1 0
0.115731 6.40205 6.40205 1 1 0
0.115733 6.40218 6.40218 1 1 0
0.115736 6.40231 6.40231 1 1 0
0.115738 6.40244 6.40244 1 1 0
0.115741 6.40257 6.40257 1 1 0
0.115744 6.4027 6.4027 1 1 0
0.115746 6.40283 6.40283 1 1 0
0.115749 6.40295 6.40295 1 1 0
0.115752 6.40308 6.40308 1 1 0
0.115754 6.40321 6.40321 1 1 0
0.115757 6.40334 6.40334 1 1 0
0.11576 6.40347 6.40347 1 1 0
0.115762 6.4036 6.4036 1 1 0
0.115765 6.40373 6.40373 1 1 0
0.115768 6.40386 6.40386 1 1 0
0.11577 6.40399 6.40399 1 1 0
0.115773 6.40412 6.40412 1 1 0
0.115776 6.40425 6.40425 1 1 0
0.115778 6.40437 6.40437 1 1 0
0.115781 6.4045 6.4045 1 1 0
0.115784 6.40463 6.40463 1 1 0
0.115786 6.40476 6.40476 1 1 0
0.115789 6.40489 6.40489 1 1 0
0.115792 6.40502 6.40502 1 1 0
0.115794 6.40515 6.40515 1 1 0
0.115797 6.40528 6.40528 1 1 0
0.1158 6.40541 6.40541 1 1 0
0.115802 6.40554 6.40554 1 1 0
0.115805 6.40567 6.40567 1 1 0
0.115808 6.4058 6.4058 1 1 0
0.11581 6.40592 6.40592 1 1 0
0.115813 6.40605 6.40605 1 1 0
0.115816 6.40618 6.40618 1 1 0
0.115818 6.40631 6.40631 1 1 0
0.115821 6.40644 6.40644 1 1 0
0.115824 6.40657 6.40657 1 1 0
0.115826 6.4067 6.4067 1 1 0
0.115829 6.40683 6.40683 1 1 0
0.115832 6.40696 6.40696 1 1 0
0.115834 6.40709 6.40709 1 1 0
0.115837 6.40722 6.40722 1 1 0
0.11584 6.40734 6.40734 1 1 0
0.115842 6.40747 6.40747 1 1 0
0.115845 6.4076 6.4076 1 1 0
0.115848 6.40773 6.40773 1 1 0
0.11585 6.40786 6.40786 1 1 0
0.115853 6.40799 6.40799 1 1 0
0.115856 6.40812 6.40812 1 1 0
0.115858 6.40825 6.40825 1 1 0
0.115861 6.40838 6.40838 1 1 0
0.115864 6.40851 6.40851 1 1 0
0.115866 6.40864 6.40864 1 1 0
0.115869 6.40877 6.40877 1 1 0
0.115872 6.40889 6.40889 1 1 0
0.115874 6.40902 6.40902 1 1 0
0.115877 6.40915 6.40915 1 1 0
0.11588 6.40928 6.40928 1 1 0
0.115882 6.40941 6.40941 1 1 0
0.115885 6.40954 6.40954 1 1 0
0.115888 6.40967 6.40967 1 1 0
0.11589 6.4098 6.4098 1 1 0
0.115893 6.40993 6.40993 1 1 0
0.115896 6.41006 6.41006 1 1 0
0.115898 6.41019 6.41019 1 1 0
0.115901 6.41031 6.41031 1 1 0
0.115904 6.41044 6.41044 1 1 0
0.115906 6.41057 6.41057 1 1 0
0.115909 6.4107 6.4107 1 1 0
0.115912 6.41083 6.41083 1 1 0
0.115914 6.41096 6.41096 1 1 0
0.115917 6.41109 6.41109 1 1 0
0.11592 6.41122 6.41122 1 1 0
0.115922 6.41135 6.41135 1 1 0
0.115925 6.41148 6.41148 1 1 0
0.115928 6.41161 6.41161 1 1 0
0.11593 6.41174 6.41174 1 1 0
0.115933 6.41186 6.41186 1 1 0
0.115936 6.41199 6.41199 1 1 0
0.115938 6.41212 6.41212 1 1 0
0.115941 6.41225 6.41225 1 1 0
0.115944 6.41238 6.41238 1 1 0
0.115947 6.41251 6.41251 1 1 0
0.115949 6.41264 6.41264 1 1 0
0.115952 6.41277 6.41277 1 1 0
0.115955 6.4129 6.4129 1 1 0
0.115957 6.41303 6.41303 1 1 0
0.11596 6.41316 6.41316 1 1 0
0.115963 6.41329 6.41329 1 1 0
0.115965 6.41341 6.41341 1 1 0
0.115968 6.41354 6.41354 1 1 0
0.115971 6.41367 6.41367 1 1 0
0.115973 6.4138 6.4138 1 1 0
0.115976 6.41393 6.41393 1 1 0
0.115979 6.41406 6.41406 1 1 0
0.115981 6.41419 6.41419 1 1 0
0.115984 6.41432 6.41432 1 1 0
0.115987 6.41445 6.41445 1 1 0
0.115989 6.41458 6.41458 1 1 0
0.115992 6.41471 6.41471 1 1 0
0.115995 6.41484 6.41484 1 1 0
0.115997 6.41497 6.41497 1 1 0
0.116 6.41509 6.41509 1 1 0
0.116003 6.41522 6.41522 1 1 0
0.116005 6.41535 6.41535 1 1 0
0.116008 6.41548 6.41548 1 1 0
0.116011 6.41561 6.41561 1 1 0
0.116013 6.41574 6.41574 1 1 0
0.116016 6.41587 6.41587 1 1 0
0.116019 6.416 6.416 1 1 0
0.116021 6.41613 6.41613 1 1 0
0.116024 6.41626 6.41626 1 1 0
0.116027 6.41639 6.41639 1 1 0
0.116029 6.41652 6.41652 1 1 0
0.116032 6.41664 6.41664 1 1 0
0.116035 6.41677 6.41677 1 1 0
0.116038 6.4169 6.4169 1 1 0
0.11604 6.41703 6.41703 1 1 0
0.116043 6.41716 6.41716 1 1 0
0.116046 6.41729 6.41729 1 1 0
0.116048 6.41742 6.41742 1 1 0
0.116051 6.41755 6.41755 1 1 0
0.116054 6.41768 6.41768 1 1 0
0.116056 6.41781 6.41781 1 1 0
0.116059 6.41794 6.41794 1 1 0
0.116062 6.41807 6.41807 1 1 0
0.116064 6.4182 6.4182 1 1 0
0.116067 6.41832 6.41832 1 1 0
0.11607 6.41845 6.41845 1 1 0
0.116072 6.41858 6.41858 1 1 0
0.116075 6.41871 6.41871 1 1 0
0.116078 6.41884 6.41884 1 1 0
0.11608 6.41897 6.41897 1 1 0
0.116083 6.4191 6.4191 1 1 0
0.116086 6.41923 6.41923 1 1 0
0.116088 6.41936 6.41936 1 1 0
0.116091 6.41949 6.41949 1 1 0
0.116094 6.41962 6.41962 1 1 0
0.116097 6.41975 6.41975 1 1 0
0.116099 6.41988 6.41988 1 1 0
0.116102 6.42 6.42 1 1 0
0.116105 6.42013 6.42013 1 1 0
0.116107 6.42026 6.42026 1 1 0
0.11611 6.42039 6.42039 1 1 0
0.116113 6.42052 6.42052 1 1 0
0.116115 6.42065 6.42065 1 1 0
0.116118 6.42078 6.42078 1 1 0
0.116121 6.42091 6.42091 1 1 0
0.116123 6.42104 6.42104 1 1 0
0.116126 6.42117 6.42117 1 1 0
0.116129 6.4213 6.4213 1 1 0
0.116131 6.42143 6.42143 1 1 0
0.116134 6.42156 6.42156 1 1 0
0.116137 6.42169 6.42169 1 1 0
0.11614 6.42181 6.42181 1 1 0
0.116142 6.42194 6.42194 1 1 0
0.116145 6.42207 6.42207 1 1 0
0.116148 6.4222 6.4222 1 1 0
0.11615 6.42233 6.42233 1 1 0
0.116153 6.42246 6.42246 1 1 0
0.116156 6.42259 6.42259 1 1 0
0.116158 6.42272 6.42272 1 1 0
0.116161 6.42285 6.42285 1 1 0
0.116164 6.42298 6.42298 1 1 0
0.116166 6.42311 6.42311 1 1 0
0.116169 6.42324 6.42324 1 1 0
0.116172 6.42337 6.42337 1 1 0
0.116174 6.42349 6.42349 1 1 0
0.116177 6.42362 6.42362 1 1 0
0.11618 6.42375 6.42375 1 1 0
0.116183 6.42388 6.42388 1 1 0
0.116185 6.42401 6.42401 1 1 0
0.116188 6.42414 6.42414 1 1 0
0.116191 6.42427 6.42427 1 1 0
0.116193 6.4244 6.4244 1 1 0
0.116196 6.42453 6.42453 1 1 0
0.116199 6.42466 6.42466 1 1 0
0.116201 6.42479 6.42479 1 1 0
0.116204 6.42492 6.42492 1 1 0
0.116207 6.42505 6.42505 1 1 0
0.116209 6.42518 6.42518 1 1 0
0.116212 6.4253 6.4253 1 1 0
0.116215 6.42543 6.42543 1 1 0
0.116218 6.42556 6.42556 1 1 0
0.11622 6.42569 6.42569 1 1 0
0.116223 6.42582 6.42582 1 1 0
0.116226 6.42595 6.42595 1 1 0
0.116228 6.42608 6.42608 1 1 0
0.116231 6.42621 6.42621 1 1 0
0.116234 6.42634 6.42634 1 1 0
0.116236 6.42647 6.42647 1 1 0
0.116239 6.4266 6.4266 1 1 0
0.116242 6.42673 6.42673 1 1 0
0.116244 6.42686 6.42686 1 1 0
0.116247 6.42699 6.42699 1 1 0
0.11625 6.42712 6.42712 1 1 0
0.116253 6.42724 6.42724 1 1 0
0.116255 6.42737 6.42737 1 1 0
0.116258 6.4275 6.4275 1 1 0
0.116261 6.42763 6.42763 1 1 0
0.116263 6.42776 6.42776 1 1 0
0.116266 6.42789 6.42789 1 1 0
0.116269 6.42802 6.42802 1 1 0
0.116271 6.42815 6.42815 1 1 0
0.116274 6.42828 6.42828 1 1 0
0.116277 6.42841 6.42841 1 1 0
0.116279 6.42854 6.42854 1 1 0
0.116282 6.42867 6.42867 1 1 0
0.116285 6.4288 6.4288 1 1 0
0.116288 6.42893 6.42893 1 1 0
0.11629 6.42906 6.42906 1 1 0
0.116293 6.42918 6.42918 1 1 0
0.116296 6.42931 6.42931 1 1 0
0.116298 6.42944 6.42944 1 1 0
0.116301 6.42957 6.42957 1 1 0
0.116304 6.4297 6.4297 1 1 0
0.116306 6.42983 6.42983 1 1 0
0.116309 6.42996 6.42996 1 1 0
0.116312 6.43009 6.43009 1 1 0
0.116315 6.43022 6.43022 1 1 0
0.116317 6.43035 6.43035 1 1 0
0.11632 6.43048 6.43048 1 1 0
0.116323 6.43061 6.43061 1 1 0
0.116325 6.43074 6.43074 1 1 0
0.116328 6.43087 6.43087 1 1 0
0.116331 6.431 6.431 1 1 0
0.116333 6.43112 6.43112 1 1 0
0.116336 6.43125 6.43125 1 1 0
0.116339 6.43138 6.43138 1 1 0
0.116342 6.43151 6.43151 1 1 0
0.116344 6.43164 6.43164 1 1 0
0.116347 6.43177 6.43177 1 1 0
0.11635 6.4319 6.4319 1 1 0
0.116352 6.43203 6.43203 1 1 0
0.116355 6.43216 6.43216 1 1 0
0.116358 6.43229 6.43229 1 1 0
0.11636 6.43242 6.43242 1 1 0
0.116363 6.43255 6.43255 1 1 0
0.116366 6.43268 6.43268 1 1 0
0.116369 6.43281 6.43281 1 1 0
0.116371 6.43294 6.43294 1 1 0
0.116374 6.43307 6.43307 1 1 0
0.116377 6.43319 6.43319 1 1 0
0.116379 6.43332 6.43332 1 1 0
0.116382 6.43345 6.43345 1 1 0
0.116385 6.43358 6.43358 1 1 0
0.116388 6.43371 6.43371 1 1 0
0.11639 6.43384 6.43384 1 1 0
0.116393 6.43397 6.43397 1 1 0
0.116396 6.4341 6.4341 1 1 0
0.116398 6.43423 6.43423 1 1 0
0.116401 6.43436 6.43436 1 1 0
0.116404 6.43449 6.43449 1 1 0
0.116406 6.43462 6.43462 1 1 0
0.116409 6.43475 6.43475 1 1 0
0.116412 6.43488 6.43488 1 1 0
0.116415 6.43501 6.43501 1 1 0
0.116417 6.43514 6.43514 1 1 0
0.11642 6.43526 6.43526 1 1 0
0.116423 6.43539 6.43539 1 1 0
0.116425 6.43552 6.43552 1 1 0
0.116428 6.43565 6.43565 1 1 0
0.116431 6.43578 6.43578 1 1 0
0.116434 6.43591 6.43591 1 1 0
0.116436 6.43604 6.43604 1 1 0
0.116439 6.43617 6.43617 1 1 0
0.116442 6.4363 6.4363 1 1 0
0.116444 6.43643 6.43643 1 1 0
0.116447 6.43656 6.43656 1 1 0
0.11645 6.43669 6.43669 1 1 0
0.116452 6.43682 6.43682 1 1 0
0.116455 6.43695 6.43695 1 1 0
0.116458 6.43708 6.43708 1 1 0
0.116461 6.43721 6.43721 1 1 0
0.116463 6.43734 6.43734 1 1 0
0.116466 6.43746 6.43746 1 1 0
0.116469 6.43759 6.43759 1 1 0
0.116471 6.43772 6.43772 1 1 0
0.116474 6.43785 6.43785 1 1 0
0.116477 6.43798 6.43798 1 1 0
0.11648 6.43811 6.43811 1 1 0
0.116482 6.43824 6.43824 1 1 0
0.116485 6.43837 6.43837 1 1 0
0.116488 6.4385 6.4385 1 1 0
0.11649 6.43863 6.43863 1 1 0
0.116493 6.43876 6.43876 1 1 0
0.116496 6.43889 6.43889 1 1 0
0.116499 6.43902 6.43902 1 1 0
0.116501 6.43915 6.43915 1 1 0
0.116504 6.43928 6.43928 1 1 0
0.116507 6.43941 6.43941 1 1 0
0.116509 6.43954 6.43954 1 1 0
0.116512 6.43966 6.43966 1 1 0
0.116515 6.43979 6.43979 1 1 0
0.116518 6.43992 6.43992 1 1 0
0.11652 6.44005 6.44005 1 1 0
0.116523 6.44018 6.44018 1 1 0
0.116526 6.44031 6.44031 1 1 0
0.116528 6.44044 6.44044 1 1 0
0.116531 6.44057 6.44057 1 1 0
0.116534 6.4407 6.4407 1 1 0
0.116537 6.44083 6.44083 1 1 0
0.116539 6.44096 6.44096 1 1 0
0.116542 6.44109 6.44109 1 1 0
0.116545 6.44122 6.44122 1 1 0
0.116547 6.44135 6.44135 1 1 0
0.11655 6.44148 6.44148 1 1 0
0.116553 6.44161 6.44161 1 1 0
0.116556 6.44174 6.44174 1 1 0
0.116558 6.44187 6.44187 1 1 0
0.116561 6.44199 6.44199 1 1 0
0.116564 6.44212 6.44212 1 1 0
0.116566 6.44225 6.44225 1 1 0
0.116569 6.44238 6.44238 1 1 0
0.116572 6.44251 6.44251 1 1 0
0.116575 6.44264 6.44264 1 1 0
0.116577 6.44277 6.44277 1 1 0
0.11658 6.4429 6.4429 1 1 0
0.116583 6.44303 6.44303 1 1 0
0.116585 6.44316 6.44316 1 1 0
0.116588 6.44329 6.44329 1 1 0
0.116591 6.44342 6.44342 1 1 0
0.116594 6.44355 6.44355 1 1 0
0.116596 6.44368 6.44368 1 1 0
0.116599 6.44381 6.44381 1 1 0
0.116602 6.44394 6.44394 1 1 0
0.116604 6.44407 6.44407 1 1 0
0.116607 6.4442 6.4442 1 1 0
0.11661 6.44433 6.44433 1 1 0
0.116613 6.44446 6.44446 1 1 0
0.116615 6.44458 6.44458 1 1 0
0.116618 6.44471 6.44471 1 1 0
0.116621 6.44484 6.44484 1 1 0
0.116623 6.44497 6.44497 1 1 0
0.116626 6.4451 6.4451 1 1 0
0.116629 6.44523 6.44523 1 1 0
0.116632 6.44536 6.44536 1 1 0
0.116634 6.44549 6.44549 1 1 0
0.116637 6.44562 6.44562 1 1 0
0.11664 6.44575 6.44575 1 1 0
0.116643 6.44588 6.44588 1 1 0
0.116645 6.44601 6.44601 1 1 0
0.116648 6.44614 6.44614 1 1 0
0.116651 6.44627 6.44627 1 1 0
0.116653 6.4464 6.4464 1 1 0
0.116656 6.44653 6.44653 1 1 0
0.116659 6.44666 6.44666 1 1 0
0.116662 6.44679 6.44679 1 1 0
0.116664 6.44692 6.44692 1 1 0
0.116667 6.44705 6.44705 1 1 0
0.11667 6.44717 6.44717 1 1 0
0.116672 6.4473 6.4473 1 1 0
0.116675 6.44743 6.44743 1 1 0
0.116678 6.44756 6.44756 1 1 0
0.116681 6.44769 6.44769 1 1 0
0.116683 6.44782 6.44782 1 1 0
0.116686 6.44795 6.44795 1 1 0
0.116689 6.44808 6.44808 1 1 0
0.116692 6.44821 6.44821 1 1 0
0.116694 6.44834 6.44834 1 1 0
0.116697 6.44847 6.44847 1 1 0
0.1167 6.4486 6.4486 1 1 0
0.116702 6.44873 6.44873 1 1 0
0.116705 6.44886 6.44886 1 1 0
0.116708 6.44899 6.44899 1 1 0
0.116711 6.44912 6.44912 1 1 0
0.116713 6.44925 6.44925 1 1 0
0.116716 6.44938 6.44938 1 1 0
0.116719 6.44951 6.44951 1 1 0
0.116722 6.44964 6.44964 1 1 0
0.116724 6.44977 6.44977 1 1 0
0.116727 6.44989 6.44989 1 1 0
0.11673 6.45002 6.45002 1 1 0
0.116732 6.45015 6.45015 1 1 0
0.116735 6.45028 6.45028 1 1 0
0.116738 6.45041 6.45041 1 1 0
0.116741 6.45054 6.45054 1 1 0
0.116743 6.45067 6.45067 1 1 0
0.116746 6.4508 6.4508 1 1 0
0.116749 6.45093 6.45093 1 1 0
0.116752 6.45106 6.45106 1 1 0
0.116754 6.45119 6.45119 1 1 0
0.116757 6.45132 6.45132 1 1 0
0.11676 6.45145 6.45145 1 1 0
0.116763 6.45158 6.45158 1 1 0
0.116765 6.45171 6.45171 1 1 0
0.116768 6.45184 6.45184 1 1 0
0.116771 6.45197 6.45197 1 1 0
0.116773 6.4521 6.4521 1 1 0
0.116776 6.45223 6.45223 1 1 0
0.116779 6.45236 6.45236 1 1 0
0.116782 6.45249 6.45249 1 1 0
0.116784 6.45262 6.45262 1 1 0
0.116787 6.45274 6.45274 1 1 0
0.11679 6.45287 6.45287 1 1 0
0.116793 6.453 6.453 1 1 0
0.116795 6.45313 6.45313 1 1 0
0.116798 6.45326 6.45326 1 1 0
0.116801 6.45339 6.45339 1 1 0
0.116803 6.45352 6.45352 1 1 0
0.116806 6.45365 6.45365 1 1 0
0.116809 6.45378 6.45378 1 1 0
0.116812 6.45391 6.45391 1 1 0
0.116814 6.45404 6.45404 1 1 0
0.116817 6.45417 6.45417 1 1 0
0.11682 6.4543 6.4543 1 1 0
0.116823 6.45443 6.45443 1 1 0
0.116825 6.45456 6.45456 1 1 0
0.116828 6.45469 6.45469 1 1 0
0.116831 6.45482 6.45482 1 1 0
0.116834 6.45495 6.45495 1 1 0
0.116836 6.45508 6.45508 1 1 0
0.116839 6.45521 6.45521 1 1 0
0.116842 6.45534 6.45534 1 1 0
0.116845 6.45547 6.45547 1 1 0
0.116847 6.4556 6.4556 1 1 0
0.11685 6.45573 6.45573 1 1 0
0.116853 6.45586 6.45586 1 1 0
0.116855 6.45598 6.45598 1 1 0
0.116858 6.45611 6.45611 1 1 0
0.116861 6.45624 6.45624 1 1 0
0.116864 6.45637 6.45637 1 1 0
0.116866 6.4565 6.4565 1 1 0
0.116869 6.45663 6.45663 1 1 0
0.116872 6.45676 6.45676 1 1 0
0.116875 6.45689 6.45689 1 1 0
0.116877 6.45702 6.45702 1 1 0
0.11688 6.45715 6.45715 1 1 0
0.116883 6.45728 6.45728 1 1 0
0.116886 6.45741 6.45741 1 1 0
0.116888 6.45754 6.45754 1 1 0
0.116891 6.45767 6.45767 1 1 0
0.116894 6.4578 6.4578 1 1 0
0.116897 6.45793 6.45793 1 1 0
0.116899 6.45806 6.45806 1 1 0
0.116902 6.45819 6.45819 1 1 0
0.116905 6.45832 6.45832 1 1 0
0.116907 6.45845 6.45845 1 1 0
0.11691 6.45858 6.45858 1 1 0
0.116913 6.45871 6.45871 1 1 0
0.116916 6.45884 6.45884 1 1 0
0.116918 6.45897 6.45897 1 1 0
0.116921 6.4591 6.4591 1 1 0
0.116924 6.45923 6.45923 1 1 0
0.116927 6.45935 6.45935 1 1 0
0.116929 6.45948 6.45948 1 1 0
0.116932 6.45961 6.45961 1 1 0
0.116935 6.45974 6.45974 1 1 0
0.116938 6.45987 6.45987 1 1 0
0.11694 6.46 6.46 1 1 0
0.116943 6.46013 6.46013 1 1 0
0.116946 6.46026 6.46026 1 1 0
0.116949 6.46039 6.46039 1 1 0
0.116951 6.46052 6.46052 1 1 0
0.116954 6.46065 6.46065 1 1 0
0.116957 6.46078 6.46078 1 1 0
0.11696 6.46091 6.46091 1 1 0
0.116962 6.46104 6.46104 1 1 0
0.116965 6.46117 6.46117 1 1 0
0.116968 6.4613 6.4613 1 1 0
0.116971 6.46143 6.46143 1 1 0
0.116973 6.46156 6.46156 1 1 0
0.116976 6.46169 6.46169 1 1 0
0.116979 6.46182 6.46182 1 1 0
0.116982 6.46195 6.46195 1 1 0
0.116984 6.46208 6.46208 1 1 0
0.116987 6.46221 6.46221 1 1 0
0.11699 6.46234 6.46234 1 1 0
0.116993 6.46247 6.46247 1 1 0
0.116995 6.4626 6.4626 1 1 0
0.116998 6.46273 6.46273 1 1 0
0.117001 6.46286 6.46286 1 1 0
0.117004 6.46299 6.46299 1 1 0
0.117006 6.46311 6.46311 1 1 0
0.117009 6.46324 6.46324 1 1 0
0.117012 6.46337 6.46337 1 1 0
0.117015 6.4635 6.4635 1 1 0
0.117017 6.46363 6.46363 1 1 0
0.11702 6.46376 6.46376 1 1 0
0.117023 6.46389 6.46389 1 1 0
0.117026 6.46402 6.46402 1 1 0
0.117028 6.46415 6.46415 1 1 0
0.117031 6.46428 6.46428 1 1 0
0.117034 6.46441 6.46441 1 1 0
0.117037 6.46454 6.46454 1 1 0
0.117039 6.46467 6.46467 1 1 0
0.117042 6.4648 6.4648 1 1 0
0.117045 6.46493 6.46493 1 1 0
0.117048 6.46506 6.46506 1 1 0
0.11705 6.46519 6.46519 1 1 0
0.117053 6.46532 6.46532 1 1 0
0.117056 6.46545 6.46545 1 1 0
0.117059 6.46558 6.46558 1 1 0
0.117061 6.46571 6.46571 1 1 0
0.117064 6.46584 6.46584 1 1 0
0.117067 6.46597 6.46597 1 1 0
0.11707 6.4661 6.4661 1 1 0
0.117072 6.46623 6.46623 1 1 0
0.117075 6.46636 6.46636 1 1 0
0.117078 6.46649 6.46649 1 1 0
0.117081 6.46662 6.46662 1 1 0
0.117083 6.46675 6.46675 1 1 0
0.117086 6.46688 6.46688 1 1 0
0.117089 6.46701 6.46701 1 1 0
0.117092 6.46714 6.46714 1 1 0
0.117094 6.46727 6.46727 1 1 0
0.117097 6.4674 6.4674 1 1 0
0.1171 6.46752 6.46752 1 1 0
0.117103 6.46765 6.46765 1 1 0
0.117105 6.46778 6.46778 1 1 0
0.117108 6.46791 6.46791 1 1 0
0.117111 6.46804 6.46804 1 1 0
0.117114 6.46817 6.46817 1 1 0
0.117116 6.4683 6.4683 1 1 0
0.117119 6.46843 6.46843 1 1 0
0.117122 6.46856 6.46856 1 1 0
0.117125 6.46869 6.46869 1 1 0
0.117127 6.46882 6.46882 1 1 0
0.11713 6.46895 6.46895 1 1 0
0.117133 6.46908 6.46908 1 1 0
0.117136 6.46921 6.46921 1 1 0
0.117138 6.46934 6.46934 1 1 0
0.117141 6.46947 6.46947 1 1 0
0.117144 6.4696 6.4696 1 1 0
0.117147 6.46973 6.46973 1 1 0
0.117149 6.46986 6.46986 1 1 0
0.117152 6.46999 6.46999 1 1 0
0.117155 6.47012 6.47012 1 1 0
0.117158 6.47025 6.47025 1 1 0
0.11716 6.47038 6.47038 1 1 0
0.117163 6.47051 6.47051 1 1 0
0.117166 6.47064 6.47064 1 1 0
0.117169 6.47077 6.47077 1 1 0
0.117172 6.4709 6.4709 1 1 0
0.117174 6.47103 6.47103 1 1 0
0.117177 6.47116 6.47116 1 1 0
0.11718 6.47129 6.47129 1 1 0
0.117183 6.47142 6.47142 1 1 0
0.117185 6.47155 6.47155 1 1 0
0.117188 6.47168 6.47168 1 1 0
0.117191 6.47181 6.47181 1 1 0
0.117194 6.47194 6.47194 1 1 0
0.117196 6.47207 6.47207 1 1 0
0.117199 6.4722 6.4722 1 1 0
0.117202 6.47233 6.47233 1 1 0
0.117205 6.47246 6.47246 1 1 0
0.117207 6.47259 6.47259 1 1 0
0.11721 6.47271 6.47271 1 1 0
0.117213 6.47284 6.47284 1 1 0
0.117216 6.47297 6.47297 1 1 0
0.117218 6.4731 6.4731 1 1 0
0.117221 6.47323 6.47323 1 1 0
0.117224 6.47336 6.47336 1 1 0
0.117227 6.47349 6.47349 1 1 0
0.117229 6.47362 6.47362 1 1 0
0.117232 6.47375 6.47375 1 1 0
0.117235 6.47388 6.47388 1 1 0
0.117238 6.47401 6.47401 1 1 0
0.117241 6.47414 6.47414 1 1 0
0.117243 6.47427 6.47427 1 1 0
0.117246 6.4744 6.4744 1 1 0
0.117249 6.47453 6.47453 1 1 0
0.117252 6.47466 6.47466 1 1 0
0.117254 6.47479 6.47479 1 1 0
0.117257 6.47492 6.47492 1 1 0
0.11726 6.47505 6.47505 1 1 0
0.117263 6.47518 6.47518 1 1 0
0.117265 6.47531 6.47531 1 1 0
0.117268 6.47544 6.47544 1 1 0
0.117271 6.47557 6.47557 1 1 0
0.117274 6.4757 6.4757 1 1 0
0.117277 6.47583 6.47583 1 1 0
0.117279 6.47596 6.47596 1 1 0
0.117282 6.47609 6.47609 1 1 0
0.117285 6.47622 6.47622 1 1 0
0.117288 6.47635 6.47635 1 1 0
0.11729 6.47648 6.47648 1 1 0
0.117293 6.47661 6.47661 1 1 0
0.117296 6.47674 6.47674 1 1 0
0.117299 6.47687 6.47687 1 1 0
0.117301 6.477 6.477 1 1 0
0.117304 6.47713 6.47713 1 1 0
0.117307 6.47726 6.47726 1 1 0
0.11731 6.47739 6.47739 1 1 0
0.117313 6.47752 6.47752 1 1 0
0.117315 6.47765 6.47765 1 1 0
0.117318 6.47778 6.47778 1 1 0
0.117321 6.47791 6.47791 1 1 0
0.117324 6.47804 6.47804 1 1 0
0.117326 6.47817 6.47817 1 1 0
0.117329 6.4783 6.4783 1 1 0
0.117332 6.47843 6.47843 1 1 0
0.117335 6.47856 6.47856 1 1 0
0.117337 6.47869 6.47869 1 1 0
0.11734 6.47882 6.47882 1 1 0
0.117343 6.47895 6.47895 1 1 0
0.117346 6.47908 6.47908 1 1 0
0.117349 6.47921 6.47921 1 1 0
0.117351 6.47934 6.47934 1 1 0
0.117354 6.47947 6.47947 1 1 0
0.117357 6.4796 6.4796 1 1 0
0.11736 6.47973 6.47973 1 1 0
0.117362 6.47985 6.47985 1 1 0
0.117365 6.47998 6.47998 1 1 0
0.117368 6.48011 6.48011 1 1 0
0.117371 6.48024 6.48024 1 1 0
0.117373 6.48037 6.48037 1 1 0
0.117376 6.4805 6.4805 1 1 0
0.117379 6.48063 6.48063 1 1 0
0.117382 6.48076 6.48076 1 1 0
0.117385 6.48089 6.48089 1 1 0
0.117387 6.48102 6.48102 1 1 0
0.11739 6.48115 6.48115 1 1 0
0.117393 6.48128 6.48128 1 1 0
0.117396 6.48141 6.48141 1 1 0
0.117398 6.48154 6.48154 1 1 0
0.117401 6.48167 6.48167 1 1 0
0.117404 6.4818 6.4818 1 1 0
0.117407 6.48193 6.48193 1 1 0
0.11741 6.48206 6.48206 1 1 0
0.117412 6.48219 6.48219 1 1 0
0.117415 6.48232 6.48232 1 1 0
0.117418 6.48245 6.48245 1 1 0
0.117421 6.48258 6.48258 1 1 0
0.117423 6.48271 6.48271 1 1 0
0.117426 6.48284 6.48284 1 1 0
0.117429 6.48297 6.48297 1 1 0
0.117432 6.4831 6.4831 1 1 0
0.117435 6.48323 6.48323 1 1 0
0.117437 6.48336 6.48336 1 1 0
0.11744 6.48349 6.48349 1 1 0
0.117443 6.48362 6.48362 1 1 0
0.117446 6.48375 6.48375 1 1 0
0.117448 6.48388 6.48388 1 1 0
0.117451 6.48401 6.48401 1 1 0
0.117454 6.48414 6.48414 1 1 0
0.117457 6.48427 6.48427 1 1 0
0.11746 6.4844 6.4844 1 1 0
0.117462 6.48453 6.48453 1 1 0
0.117465 6.48466 6.48466 1 1 0
0.117468 6.48479 6.48479 1 1 0
0.117471 6.48492 6.48492 1 1 0
0.117473 6.48505 6.48505 1 1 0
0.117476 6.48518 6.48518 1 1 0
0.117479 6.48531 6.48531 1 1 0
0.117482 6.48544 6.48544 1 1 0
0.117485 6.48557 6.48557 1 1 0
0.117487 6.4857 6.4857 1 1 0
0.11749 6.48583 6.48583 1 1 0
0.117493 6.48596 6.48596 1 1 0
0.117496 6.48609 6.48609 1 1 0
0.117499 6.48622 6.48622 1 1 0
0.117501 6.48635 6.48635 1 1 0
0.117504 6.48648 6.48648 1 1 0
0.117507 6.48661 6.48661 1 1 0
0.11751 6.48674 6.48674 1 1 0
0.117512 6.48687 6.48687 1 1 0
0.117515 6.487 6.487 1 1 0
0.117518 6.48713 6.48713 1 1 0
0.117521 6.48726 6.48726 1 1 0
0.117524 6.48739 6.48739 1 1 0
0.117526 6.48752 6.48752 1 1 0
0.117529 6.48765 6.48765 1 1 0
0.117532 6.48778 6.48778 1 1 0
0.117535 6.48791 6.48791 1 1 0
0.117538 6.48804 6.48804 1 1 0
0.11754 6.48817 6.48817 1 1 0
0.117543 6.4883 6.4883 1 1 0
0.117546 6.48843 6.48843 1 1 0
0.117549 6.48856 6.48856 1 1 0
0.117551 6.48869 6.48869 1 1 0
0.117554 6.48882 6.48882 1 1 0
0.117557 6.48895 6.48895 1 1 0
0.11756 6.48908 6.48908 1 1 0
0.117563 6.48921 6.48921 1 1 0
0.117565 6.48934 6.48934 1 1 0
0.117568 6.48947 6.48947 1 1 0
0.117571 6.4896 6.4896 1 1 0
0.117574 6.48973 6.48973 1 1 0
0.117577 6.48986 6.48986 1 1 0
0.117579 6.48999 6.48999 1 1 0
0.117582 6.49012 6.49012 1 1 0
0.117585 6.49025 6.49025 1 1 0
0.117588 6.49038 6.49038 1 1 0
0.11759 6.49051 6.49051 1 1 0
0.117593 6.49064 6.49064 1 1 0
0.117596 6.49077 6.49077 1 1 0
0.117599 6.4909 6.4909 1 1 0
0.117602 6.49103 6.49103 1 1 0
0.117604 6.49116 6.49116 1 1 0
0.117607 6.49129 6.49129 1 1 0
0.11761 6.49142 6.49142 1 1 0
0.117613 6.49155 6.49155 1 1 0
0.117616 6.49168 6.49168 1 1 0
0.117618 6.49181 6.49181 1 1 0
0.117621 6.49194 6.49194 1 1 0
0.117624 6.49207 6.49207 1 1 0
0.117627 6.4922 6.4922 1 1 0
0.11763 6.49233 6.49233 1 1 0
0.117632 6.49246 6.49246 1 1 0
0.117635 6.49259 6.49259 1 1 0
0.117638 6.49272 6.49272 1 1 0
0.117641 6.49285 6.49285 1 1 0
0.117644 6.49298 6.49298 1 1 0
0.117646 6.49311 6.49311 1 1 0
0.117649 6.49324 6.49324 1 1 0
0.117652 6.49337 6.49337 1 1 0
0.117655 6.4935 6.4935 1 1 0
0.117657 6.49363 6.49363 1 1 0
0.11766 6.49376 6.49376 1 1 0
0.117663 6.49389 6.49389 1 1 0
0.117666 6.49402 6.49402 1 1 0
0.117669 6.49415 6.49415 1 1 0
0.117671 6.49428 6.49428 1 1 0
0.117674 6.49441 6.49441 1 1 0
0.117677 6.49454 6.49454 1 1 0
0.11768 6.49467 6.49467 1 1 0
0.117683 6.4948 6.4948 1 1 0
0.117685 6.49493 6.49493 1 1 0
0.117688 6.49506 6.49506 1 1 0
0.117691 6.49519 6.49519 1 1 0
0.117694 6.49532 6.49532 1 1 0
0.117697 6.49545 6.49545 1 1 0
0.117699 6.49558 6.49558 1 1 0
0.117702 6.49571 6.49571 1 1 0
0.117705 6.49584 6.49584 1 1 0
0.117708 6.49597 6.49597 1 1 0
0.117711 6.4961 6.4961 1 1 0
0.117713 6.49623 6.49623 1 1 0
0.117716 6.49636 6.49636 1 1 0
0.117719 6.49649 6.49649 1 1 0
0.117722 6.49662 6.49662 1 1 0
0.117725 6.49675 6.49675 1 1 0
0.117727 6.49688 6.49688 1 1 0
0.11773 6.49701 6.49701 1 1 0
0.117733 6.49714 6.49714 1 1 0
0.117736 6.49727 6.49727 1 1 0
0.117739 6.4974 6.4974 1 1 0
0.117741 6.49753 6.49753 1 1 0
0.117744 6.49766 6.49766 1 1 0
0.117747 6.49779 6.49779 1 1 0
0.11775 6.49792 6.49792 1 1 0
0.117753 6.49805 6.49805 1 1 0
0.117755 6.49818 6.49818 1 1 0
0.117758 6.49831 6.49831 1 1 0
0.117761 6.49844 6.49844 1 1 0
0.117764 6.49857 6.49857 1 1 0
0.117767 6.4987 6.4987 1 1 0
0.117769 6.49883 6.49883 1 1 0
0.117772 6.49896 6.49896 1 1 0
0.117775 6.49909 6.49909 1 1 0
0.117778 6.49922 6.49922 1 1 0
0.117781 6.49935 6.49935 1 1 0
0.117783 6.49948 6.49948 1 1 0
0.117786 6.49961 6.49961 1 1 0
0.117789 6.49974 6.49974 1 1 0
0.117792 6.49987 6.49987 1 1 0
0.117795 6.5 6.5 1 1 0
0.117797 6.50013 6.50013 1 1 0
0.1178 6.50026 6.50026 1 1 0
0.117803 6.50039 6.50039 1 1 0
0.117806 6.50052 6.50052 1 1 0
0.117809 6.50065 6.50065 1 1 0
0.117812 6.50078 6.50078 1 1 0
0.117814 6.50091 6.50091 1 1 0
0.117817 6.50104 6.50104 1 1 0
0.11782 6.50117 6.50117 1 1 0
0.117823 6.5013 6.5013 1 1 0
0.117826 6.50143 6.50143 1 1 0
0.117828 6.50156 6.50156 1 1 0
0.117831 6.50169 6.50169 1 1 0
0.117834 6.50182 6.50182 1 1 0
0.117837 6.50195 6.50195 1 1 0
0.11784 6.50208 6.50208 1 1 0
0.117842 6.50221 6.50221 1 1 0
0.117845 6.50234 6.50234 1 1 0
0.117848 6.50247 6.50247 1 1 0
0.117851 6.5026 6.5026 1 1 0
0.117854 6.50273 6.50273 1 1 0
0.117856 6.50286 6.50286 1 1 0
0.117859 6.50299 6.50299 1 1 0
0.117862 6.50312 6.50312 1 1 0
0.117865 6.50325 6.50325 1 1 0
0.117868 6.50338 6.50338 1 1 0
0.11787 6.50351 6.50351 1 1 0
0.117873 6.50364 6.50364 1 1 0
0.117876 6.50377 6.50377 1 1 0
0.117879 6.5039 6.5039 1 1 0
0.117882 6.50403 6.50403 1 1 0
0.117885 6.50416 6.50416 1 1 0
0.117887 6.50429 6.50429 1 1 0
0.11789 6.50442 6.50442 1 1 0
0.117893 6.50455 6.50455 1 1 0
0.117896 6.50468 6.50468 1 1 0
0.117899 6.50481 6.50481 1 1 0
0.117901 6.50494 6.50494 1 1 0
0.117904 6.50507 6.50507 1 1 0
0.117907 6.5052 6.5052 1 1 0
0.11791 6.50533 6.50533 1 1 0
0.117913 6.50546 6.50546 1 1 0
0.117915 6.50559 6.50559 1 1 0
0.117918 6.50572 6.50572 1 1 0
0.117921 6.50585 6.50585 1 1 0
0.117924 6.50598 6.50598 1 1 0
0.117927 6.50611 6.50611 1 1 0
0.11793 6.50625 6.50625 1 1 0
0.117932 6.50638 6.50638 1 1 0
0.117935 6.50651 6.50651 1 1 0
0.117938 6.50664 6.50664 1 1 0
0.117941 6.50677 6.50677 1 1 0
0.117944 6.5069 6.5069 1 1 0
0.117946 6.50703 6.50703 1 1 0
0.117949 6.50716 6.50716 1 1 0
0.117952 6.50729 6.50729 1 1 0
0.117955 6.50742 6.50742 1 1 0
0.117958 6.50755 6.50755 1 1 0
0.117961 6.50768 6.50768 1 1 0
0.117963 6.50781 6.50781 1 1 0
0.117966 6.50794 6.50794 1 1 0
0.117969 6.50807 6.50807 1 1 0
0.117972 6.5082 6.5082 1 1 0
0.117975 6.50833 6.50833 1 1 0
0.117977 6.50846 6.50846 1 1 0
0.11798 6.50859 6.50859 1 1 0
0.117983 6.50872 6.50872 1 1 0
0.117986 6.50885 6.50885 1 1 0
0.117989 6.50898 6.50898 1 1 0
0.117992 6.50911 6.50911 1 1 0
0.117994 6.50924 6.50924 1 1 0
0.117997 6.50937 6.50937 1 1 0
0.118 6.5095 6.5095 1 1 0
0.118003 6.50963 6.50963 1 1 0
0.118006 6.50976 6.50976 1 1 0
0.118008 6.50989 6.50989 1 1 0
0.118011 6.51002 6.51002 1 1 0
0.118014 6.51015 6.51015 1 1 0
0.118017 6.51028 6.51028 1 1 0
0.11802 6.51041 6.51041 1 1 0
0.118023 6.51054 6.51054 1 1 0
0.118025 6.51067 6.51067 1 1 0
0.118028 6.5108 6.5108 1 1 0
0.118031 6.51093 6.51093 1 1 0
0.118034 6.51106 6.51106 1 1 0
0.118037 6.51119 6.51119 1 1 0
0.118039 6.51132 6.51132 1 1 0
0.118042 6.51145 6.51145 1 1 0
0.118045 6.51158 6.51158 1 1 0
0.118048 6.51171 6.51171 1 1 0
0.118051 6.51184 6.51184 1 1 0
0.118054 6.51197 6.51197 1 1 0
0.118056 6.5121 6.5121 1 1 0
0.118059 6.51223 6.51223 1 1 0
0.118062 6.51236 6.51236 1 1 0
0.118065 6.51249 6.51249 1 1 0
0.118068 6.51262 6.51262 1 1 0
0.118071 6.51275 6.51275 1 1 0
0.118073 6.51288 6.51288 1 1 0
0.118076 6.51301 6.51301 1 1 0
0.118079 6.51314 6.51314 1 1 0
0.118082 6.51328 6.51328 1 1 0
0.118085 6.51341 6.51341 1 1 0
0.118088 6.51354 6.51354 1 1 0
0.11809 6.51367 6.51367 1 1 0
0.118093 6.5138 6.5138 1 1 0
0.118096 6.51393 6.51393 1 1 0
0.118099 6.51406 6.51406 1 1 0
0.118102 6.51419 6.51419 1 1 0
0.118104 6.51432 6.51432 1 1 0
0.118107 6.51445 6.51445 1 1 0
0.11811 6.51458 6.51458 1 1 0
0.118113 6.51471 6.51471 1 1 0
0.118116 6.51484 6.51484 1 1 0
0.118119 6.51497 6.51497 1 1 0
0.118121 6.5151 6.5151 1 1 0
0.118124 6.51523 6.51523 1 1 0
0.118127 6.51536 6.51536 1 1 0
0.11813 6.51549 6.51549 1 1 0
0.118133 6.51562 6.51562 1 1 0
0.118136 6.51575 6.51575 1 1 0
0.118138 6.51588 6.51588 1 1 0
0.118141 6.51601 6.51601 1 1 0
0.118144 6.51614 6.51614 1 1 0
0.118147 6.51627 6.51627 1 1 0
0.11815 6.5164 6.5164 1 1 0
0.118153 6.51653 6.51653 1 1 0
0.118155 6.51666 6.51666 1 1 0
0.118158 6.51679 6.51679 1 1 0
0.118161 6.51692 6.51692 1 1 0
0.118164 6.51705 6.51705 1 1 0
0.118167 6.51718 6.51718 1 1 0
0.11817 6.51731 6.51731 1 1 0
0.118172 6.51744 6.51744 1 1 0
0.118175 6.51757 6.51757 1 1 0
0.118178 6.5177 6.5177 1 1 0
0.118181 6.51783 6.51783 1 1 0
0.118184 6.51796 6.51796 1 1 0
0.118187 6.51809 6.51809 1 1 0
0.118189 6.51822 6.51822 1 1 0
0.118192 6.51836 6.51836 1 1 0
0.118195 6.51849 6.51849 1 1 0
0.118198 6.51862 6.51862 1 1 0
0.118201 6.51875 6.51875 1 1 0
0.118204 6.51888 6.51888 1 1 0
0.118206 6.51901 6.51901 1 1 0
0.118209 6.51914 6.51914 1 1 0
0.118212 6.51927 6.51927 1 1 0
0.118215 6.5194 6.5194 1 1 0
0.118218 6.51953 6.51953 1 1 0
0.118221 6.51966 6.51966 1 1 0
0.118223 6.51979 6.51979 1 1 0
0.118226 6.51992 6.51992 1 1 0
0.118229 6.52005 6.52005 1 1 0
0.118232 6.52018 6.52018 1 1 0
0.118235 6.52031 6.52031 1 1 0
0.118238 6.52044 6.52044 1 1 0
0.11824 6.52057 6.52057 1 1 0
0.118243 6.5207 6.5207 1 1 0
0.118246 6.52083 6.52083 1 1 0
0.118249 6.52096 6.52096 1 1 0
0.118252 6.52109 6.52109 1 1 0
0.118255 6.52122 6.52122 1 1 0
0.118257 6.52135 6.52135 1 1 0
0.11826 6.52148 6.52148 1 1 0
0.118263 6.52161 6.52161 1 1 0
0.118266 6.52174 6.52174 1 1 0
0.118269 6.52187 6.52187 1 1 0
0.118272 6.522 6.522 1 1 0
0.118275 6.52213 6.52213 1 1 0
0.118277 6.52226 6.52226 1 1 0
0.11828 6.52239 6.52239 1 1 0
0.118283 6.52253 6.52253 1 1 0
0.118286 6.52266 6.52266 1 1 0
0.118289 6.52279 6.52279 1 1 0
0.118292 6.52292 6.52292 1 1 0
0.118294 6.52305 6.52305 1 1 0
0.118297 6.52318 6.52318 1 1 0
0.1183 6.52331 6.52331 1 1 0
0.118303 6.52344 6.52344 1 1 0
0.118306 6.52357 6.52357 1 1 0
0.118309 6.5237 6.5237 1 1 0
0.118311 6.52383 6.52383 1 1 0
0.118314 6.52396 6.52396 1 1 0
0.118317 6.52409 6.52409 1 1 0
0.11832 6.52422 6.52422 1 1 0
0.118323 6.52435 6.52435 1 1 0
0.118326 6.52448 6.52448 1 1 0
0.118329 6.52461 6.52461 1 1 0
0.118331 6.52474 6.52474 1 1 0
0.118334 6.52487 6.52487 1 1 0
0.118337 6.525 6.525 1 1 0
0.11834 6.52513 6.52513 1 1 0
0.118343 6.52526 6.52526 1 1 0
0.118346 6.52539 6.52539 1 1 0
0.118348 6.52552 6.52552 1 1 0
0.118351 6.52565 6.52565 1 1 0
0.118354 6.52578 6.52578 1 1 0
0.118357 6.52591 6.52591 1 1 0
0.11836 6.52604 6.52604 1 1 0
0.118363 6.52618 6.52618 1 1 0
0.118366 6.52631 6.52631 1 1 0
0.118368 6.52644 6.52644 1 1 0
0.118371 6.52657 6.52657 1 1 0
0.118374 6.5267 6.5267 1 1 0
0.118377 6.52683 6.52683 1 1 0
0.11838 6.52696 6.52696 1 1 0
0.118383 6.52709 6.52709 1 1 0
0.118385 6.52722 6.52722 1 1 0
0.118388 6.52735 6.52735 1 1 0
0.118391 6.52748 6.52748 1 1 0
0.118394 6.52761 6.52761 1 1 0
0.118397 6.52774 6.52774 1 1 0
0.1184 6.52787 6.52787 1 1 0
0.118403 6.528 6.528 1 1 0
0.118405 6.52813 6.52813 1 1 0
0.118408 6.52826 6.52826 1 1 0
0.118411 6.52839 6.52839 1 1 0
0.118414 6.52852 6.52852 1 1 0
0.118417 6.52865 6.52865 1 1 0
0.11842 6.52878 6.52878 1 1 0
0.118423 6.52891 6.52891 1 1 0
0.118425 6.52904 6.52904 1 1 0
0.118428 6.52917 6.52917 1 1 0
0.118431 6.5293 6.5293 1 1 0
0.118434 6.52943 6.52943 1 1 0
0.118437 6.52957 6.52957 1 1 0
0.11844 6.5297 6.5297 1 1 0
0.118442 6.52983 6.52983 1 1 0
0.118445 6.52996 6.52996 1 1 0
0.118448 6.53009 6.53009 1 1 0
0.118451 6.53022 6.53022 1 1 0
0.118454 6.53035 6.53035 1 1 0
0.118457 6.53048 6.53048 1 1 0
0.11846 6.53061 6.53061 1 1 0
0.118462 6.53074 6.53074 1 1 0
0.118465 6.53087 6.53087 1 1 0
0.118468 6.531 6.531 1 1 0
0.118471 6.53113 6.53113 1 1 0
0.118474 6.53126 6.53126 1 1 0
0.118477 6.53139 6.53139 1 1 0
0.11848 6.53152 6.53152 1 1 0
0.118482 6.53165 6.53165 1 1 0
0.118485 6.53178 6.53178 1 1 0
0.118488 6.53191 6.53191 1 1 0
0.118491 6.53204 6.53204 1 1 0
0.118494 6.53217 6.53217 1 1 0
0.118497 6.5323 6.5323 1 1 0
0.1185 6.53243 6.53243 1 1 0
0.118502 6.53257 6.53257 1 1 0
0.118505 6.5327 6.5327 1 1 0
0.118508 6.53283 6.53283 1 1 0
0.118511 6.53296 6.53296 1 1 0
0.118514 6.53309 6.53309 1 1 0
0.118517 6.53322 6.53322 1 1 0
0.11852 6.53335 6.53335 1 1 0
0.118522 6.53348 6.53348 1 1 0
0.118525 6.53361 6.53361 1 1 0
0.118528 6.53374 6.53374 1 1 0
0.118531 6.53387 6.53387 1 1 0
0.118534 6.534 6.534 1 1 0
0.118537 6.53413 6.53413 1 1 0
0.11854 6.53426 6.53426 1 1 0
0.118542 6.53439 6.53439 1 1 0
0.118545 6.53452 6.53452 1 1 0
0.118548 6.53465 6.53465 1 1 0
0.118551 6.53478 6.53478 1 1 0
0.118554 6.53491 6.53491 1 1 0
0.118557 6.53504 6.53504 1 1 0
0.11856 6.53517 6.53517 1 1 0
0.118562 6.53531 6.53531 1 1 0
0.118565 6.53544 6.53544 1 1 0
0.118568 6.53557 6.53557 1 1 0
0.118571 6.5357 6.5357 1 1 0
0.118574 6.53583 6.53583 1 1 0
0.118577 6.53596 6.53596 1 1 0
0.11858 6.53609 6.53609 1 1 0
0.118583 6.53622 6.53622 1 1 0
0.118585 6.53635 6.53635 1 1 0
0.118588 6.53648 6.53648 1 1 0
0.118591 6.53661 6.53661 1 1 0
0.118594 6.53674 6.53674 1 1 0
0.118597 6.53687 6.53687 1 1 0
0.1186 6.537 6.537 1 1 0
0.118603 6.53713 6.53713 1 1 0
0.118605 6.53726 6.53726 1 1 0
0.118608 6.53739 6.53739 1 1 0
0.118611 6.53752 6.53752 1 1 0
0.118614 6.53765 6.53765 1 1 0
0.118617 6.53778 6.53778 1 1 0
0.11862 6.53792 6.53792 1 1 0
0.118623 6.53805 6.53805 1 1 0
0.118626 6.53818 6.53818 1 1 0
0.118628 6.53831 6.53831 1 1 0
0.118631 6.53844 6.53844 1 1 0
0.118634 6.53857 6.53857 1 1 0
0.118637 6.5387 6.5387 1 1 0
0.11864 6.53883 6.53883 1 1 0
0.118643 6.53896 6.53896 1 1 0
0.118646 6.53909 6.53909 1 1 0
0.118648 6.53922 6.53922 1 1 0
0.118651 6.53935 6.53935 1 1 0
0.118654 6.53948 6.53948 1 1 0
0.118657 6.53961 6.53961 1 1 0
0.11866 6.53974 6.53974 1 1 0
0.118663 6.53987 6.53987 1 1 0
0.118666 6.54 6.54 1 1 0
0.118669 6.54013 6.54013 1 1 0
0.118671 6.54026 6.54026 1 1 0
0.118674 6.5404 6.5404 1 1 0
0.118677 6.54053 6.54053 1 1 0
0.11868 6.54066 6.54066 1 1 0
0.118683 6.54079 6.54079 1 1 0
0.118686 6.54092 6.54092 1 1 0
0.118689 6.54105 6.54105 1 1 0
0.118692 6.54118 6.54118 1 1 0
0.118694 6.54131 6.54131 1 1 0
0.118697 6.54144 6.54144 1 1 0
0.1187 6.54157 6.54157 1 1 0
0.118703 6.5417 6.5417 1 1 0
0.118706 6.54183 6.54183 1 1 0
0.118709 6.54196 6.54196 1 1 0
0.118712 6.54209 6.54209 1 1 0
0.118715 6.54222 6.54222 1 1 0
0.118717 6.54235 6.54235 1 1 0
0.11872 6.54248 6.54248 1 1 0
0.118723 6.54261 6.54261 1 1 0
0.118726 6.54275 6.54275 1 1 0
0.118729 6.54288 6.54288 1 1 0
0.118732 6.54301 6.54301 1 1 0
0.118735 6.54314 6.54314 1 1 0
0.118738 6.54327 6.54327 1 1 0
0.11874 6.5434 6.5434 1 1 0
0.118743 6.54353 6.54353 1 1 0
0.118746 6.54366 6.54366 1 1 0
0.118749 6.54379 6.54379 1 1 0
0.118752 6.54392 6.54392 1 1 0
0.118755 6.54405 6.54405 1 1 0
0.118758 6.54418 6.54418 1 1 0
0.118761 6.54431 6.54431 1 1 0
0.118763 6.54444 6.54444 1 1 0
0.118766 6.54457 6.54457 1 1 0
0.118769 6.5447 6.5447 1 1 0
0.118772 6.54483 6.54483 1 1 0
0.118775 6.54497 6.54497 1 1 0
0.118778 6.5451 6.5451 1 1 0
0.118781 6.54523 6.54523 1 1 0
0.118784 6.54536 6.54536 1 1 0
0.118786 6.54549 6.54549 1 1 0
0.118789 6.54562 6.54562 1 1 0
0.118792 6.54575 6.54575 1 1 0
0.118795 6.54588 6.54588 1 1 0
0.118798 6.54601 6.54601 1 1 0
0.118801 6.54614 6.54614 1 1 0
0.118804 6.54627 6.54627 1 1 0
0.118807 6.5464 6.5464 1 1 0
0.118809 6.54653 6.54653 1 1 0
0.118812 6.54666 6.54666 1 1 0
0.118815 6.54679 6.54679 1 1 0
0.118818 6.54692 6.54692 1 1 0
0.118821 6.54706 6.54706 1 1 0
0.118824 6.54719 6.54719 1 1 0
0.118827 6.54732 6.54732 1 1 0
0.11883 6.54745 6.54745 1 1 0
0.118833 6.54758 6.54758 1 1 0
0.118835 6.54771 6.54771 1 1 0
0.118838 6.54784 6.54784 1 1 0
0.118841 6.54797 6.54797 1 1 0
0.118844 6.5481 6.5481 1 1 0
0.118847 6.54823 6.54823 1 1 0
0.11885 6.54836 6.54836 1 1 0
0.118853 6.54849 6.54849 1 1 0
0.118856 6.54862 6.54862 1 1 0
0.118858 6.54875 6.54875 1 1 0
0.118861 6.54888 6.54888 1 1 0
0.118864 6.54902 6.54902 1 1 0
0.118867 6.54915 6.54915 1 1 0
0.11887 6.54928 6.54928 1 1 0
0.118873 6.54941 6.54941 1 1 0
0.118876 6.54954 6.54954 1 1 0
0.118879 6.54967 6.54967 1 1 0
0.118882 6.5498 6.5498 1 1 0
0.118884 6.54993 6.54993 1 1 0
0.118887 6.55006 6.55006 1 1 0
0.11889 6.55019 6.55019 1 1 0
0.118893 6.55032 6.55032 1 1 0
0.118896 6.55045 6.55045 1 1 0
0.118899 6.55058 6.55058 1 1 0
0.118902 6.55071 6.55071 1 1 0
0.118905 6.55084 6.55084 1 1 0
0.118908 6.55097 6.55097 1 1 0
0.11891 6.55111 6.55111 1 1 0
0.118913 6.55124 6.55124 1 1 0
0.118916 6.55137 6.55137 1 1 0
0.118919 6.5515 6.5515 1 1 0
0.118922 6.55163 6.55163 1 1 0
0.118925 6.55176 6.55176 1 1 0
0.118928 6.55189 6.55189 1 1 0
0.118931 6.55202 6.55202 1 1 0
0.118934 6.55215 6.55215 1 1 0
0.118936 6.55228 6.55228 1 1 0
0.118939 6.55241 6.55241 1 1 0
0.118942 6.55254 6.55254 1 1 0
0.118945 6.55267 6.55267 1 1 0
0.118948 6.5528 6.5528 1 1 0
0.118951 6.55294 6.55294 1 1 0
0.118954 6.55307 6.55307 1 1 0
0.118957 6.5532 6.5532 1 1 0
0.11896 6.55333 6.55333 1 1 0
0.118962 6.55346 6.55346 1 1 0
0.118965 6.55359 6.55359 1 1 0
0.118968 6.55372 6.55372 1 1 0
0.118971 6.55385 6.55385 1 1 0
0.118974 6.55398 6.55398 1 1 0
0.118977 6.55411 6.55411 1 1 0
0.11898 6.55424 6.55424 1 1 0
0.118983 6.55437 6.55437 1 1 0
0.118986 6.5545 6.5545 1 1 0
0.118989 6.55463 6.55463 1 1 0
0.118991 6.55477 6.55477 1 1 0
0.118994 6.5549 6.5549 1 1 0
0.118997 6.55503 6.55503 1 1 0
0.119 6.55516 6.55516 1 1 0
0.119003 6.55529 6.55529 1 1 0
0.119006 6.55542 6.55542 1 1 0
0.119009 6.55555 6.55555 1 1 0
0.119012 6.55568 6.55568 1 1 0
0.119015 6.55581 6.55581 1 1 0
0.119017 6.55594 6.55594 1 1 0
0.11902 6.55607 6.55607 1 1 0
0.119023 6.5562 6.5562 1 1 0
0.119026 6.55633 6.55633 1 1 0
0.119029 6.55646 6.55646 1 1 0
0.119032 6.5566 6.5566 1 1 0
0.119035 6.55673 6.55673 1 1 0
0.119038 6.55686 6.55686 1 1 0
0.119041 6.55699 6.55699 1 1 0
0.119044 6.55712 6.55712 1 1 0
0.119046 6.55725 6.55725 1 1 0
0.119049 6.55738 6.55738 1 1 0
0.119052 6.55751 6.55751 1 1 0
0.119055 6.55764 6.55764 1 1 0
0.119058 6.55777 6.55777 1 1 0
0.119061 6.5579 6.5579 1 1 0
0.119064 6.55803 6.55803 1 1 0
0.119067 6.55816 6.55816 1 1 0
0.11907 6.5583 6.5583 1 1 0
0.119073 6.55843 6.55843 1 1 0
0.119075 6.55856 6.55856 1 1 0
0.119078 6.55869 6.55869 1 1 0
0.119081 6.55882 6.55882 1 1 0
0.119084 6.55895 6.55895 1 1 0
0.119087 6.55908 6.55908 1 1 0
0.11909 6.55921 6.55921 1 1 0
0.119093 6.55934 6.55934 1 1 0
0.119096 6.55947 6.55947 1 1 0
0.119099 6.5596 6.5596 1 1 0
0.119102 6.55973 6.55973 1 1 0
0.119104 6.55986 6.55986 1 1 0
0.119107 6.56 6.56 1 1 0
0.11911 6.56013 6.56013 1 1 0
0.119113 6.56026 6.56026 1 1 0
0.119116 6.56039 6.56039 1 1 0
0.119119 6.56052 6.56052 1 1 0
0.119122 6.56065 6.56065 1 1 0
0.119125 6.56078 6.56078 1 1 0
0.119128 6.56091 6.56091 1 1 0
0.119131 6.56104 6.56104 1 1 0
0.119134 6.56117 6.56117 1 1 0
0.119136 6.5613 6.5613 1 1 0
0.119139 6.56143 6.56143 1 1 0
0.119142 6.56157 6.56157 1 1 0
