0.194795 17.0177 17.0177 1 1 0
0.194841 17.0137 17.0137 1 1 0
0.194887 17.0098 17.0098 1 1 0
0.194934 17.0059 17.0059 1 1 0
0.19498 17.002 17.002 1 1 0
0.195026 16.9981 16.9981 1 1 0
0.195072 16.9942 16.9942 1 1 0
0.195118 16.9904 16.9904 1 1 0
0.195164 16.9865 16.9865 1 1 0
0.19521 16.9827 16.9827 1 1 0
0.195255 16.9788 16.9788 1 1 0
0.195301 16.975 16.975 1 1 0
0.195347 16.9712 16.9712 1 1 0
0.195392 16.9674 16.9674 1 1 0
0.195438 16.9636 16.9636 1 1 0
0.195483 16.9598 16.9598 1 1 0
0.195528 16.956 16.956 1 1 0
0.195573 16.9523 16.9523 1 1 0
0.195618 16.9485 16.9485 1 1 0
0.195663 16.9448 16.9448 1 1 0
0.195708 16.9411 16.9411 1 1 0
0.195753 16.9374 16.9374 1 1 0
0.195797 16.9337 16.9337 1 1 0
0.195842 16.93 16.93 1 1 0
0.195886 16.9263 16.9263 1 1 0
0.19593 16.9227 16.9227 1 1 0
0.195974 16.919 16.919 1 1 0
0.196018 16.9154 16.9154 1 1 0
0.196062 16.9118 16.9118 1 1 0
0.196106 16.9082 16.9082 1 1 0
0.19615 16.9046 16.9046 1 1 0
0.196193 16.901 16.901 1 1 0
0.196236 16.8974 16.8974 1 1 0
0.196279 16.8938 16.8938 1 1 0
0.196322 16.8903 16.8903 1 1 0
0.196365 16.8868 16.8868 1 1 0
0.196408 16.8832 16.8832 1 1 0
0.19645 16.8797 16.8797 1 1 0
0.196493 16.8762 16.8762 1 1 0
0.196535 16.8728 16.8728 1 1 0
0.196577 16.8693 16.8693 1 1 0
0.196618 16.8658 16.8658 1 1 0
0.19666 16.8624 16.8624 1 1 0
0.196701 16.859 16.859 1 1 0
0.196743 16.8556 16.8556 1 1 0
0.196784 16.8521 16.8521 1 1 0
0.196825 16.8488 16.8488 1 1 0
0.196865 16.8454 16.8454 1 1 0
0.196906 16.842 16.842 1 1 0
0.196946 16.8387 16.8387 1 1 0
0.196986 16.8353 16.8353 1 1 0
0.197025 16.832 16.832 1 1 0
0.197065 16.8287 16.8287 1 1 0
0.197104 16.8254 16.8254 1 1 0
0.197143 16.8222 16.8222 1 1 0
0.197182 16.8189 16.8189 1 1 0
0.197221 16.8156 16.8156 1 1 0
0.197259 16.8124 16.8124 1 1 0
0.197297 16.8092 16.8092 1 1 0
0.197335 16.806 16.806 1 1 0
0.197373 16.8028 16.8028 1 1 0
0.19741 16.7996 16.7996 1 1 0
0.197447 16.7964 16.7964 1 1 0
0.197484 16.7933 16.7933 1 1 0
0.19752 16.7902 16.7902 1 1 0
0.197556 16.787 16.787 1 1 0
0.197592 16.7839 16.7839 1 1 0
0.197628 16.7808 16.7808 1 1 0
0.197663 16.7778 16.7778 1 1 0
0.197698 16.7747 16.7747 1 1 0
0.197732 16.7717 16.7717 1 1 0
0.197767 16.7686 16.7686 1 1 0
0.197801 16.7656 16.7656 1 1 0
0.197834 16.7626 16.7626 1 1 0
0.197868 16.7596 16.7596 1 1 0
0.197901 16.7566 16.7566 1 1 0
0.197933 16.7537 16.7537 1 1 0
0.197966 16.7507 16.7507 1 1 0
0.197998 16.7478 16.7478 1 1 0
0.198029 16.7449 16.7449 1 1 0
0.19806 16.742 16.742 1 1 0
0.198091 16.7391 16.7391 1 1 0
0.198121 16.7363 16.7363 1 1 0
0.198152 16.7334 16.7334 1 1 0
0.198181 16.7306 16.7306 1 1 0
0.19821 16.7278 16.7278 1 1 0
0.198239 16.7249 16.7249 1 1 0
0.198268 16.7222 16.7222 1 1 0
0.198296 16.7194 16.7194 1 1 0
0.198323 16.7166 16.7166 1 1 0
0.19835 16.7139 16.7139 1 1 0
0.198377 16.7111 16.7111 1 1 0
0.198403 16.7084 16.7084 1 1 0
0.198429 16.7057 16.7057 1 1 0
0.198455 16.703 16.703 1 1 0
0.19848 16.7004 16.7004 1 1 0
0.198504 16.6977 16.6977 1 1 0
0.198528 16.6951 16.6951 1 1 0
0.198551 16.6925 16.6925 1 1 0
0.198574 16.6899 16.6899 1 1 0
0.198597 16.6873 16.6873 1 1 0
0.198619 16.6847 16.6847 1 1 0
0.19864 16.6821 16.6821 1 1 0
0.198661 16.6796 16.6796 1 1 0
0.198682 16.6771 16.6771 1 1 0
0.198702 16.6745 16.6745 1 1 0
0.198721 16.672 16.672 1 1 0
0.19874 16.6696 16.6696 1 1 0
0.198758 16.6671 16.6671 1 1 0
0.198776 16.6646 16.6646 1 1 0
0.198793 16.6622 16.6622 1 1 0
0.19881 16.6598 16.6598 1 1 0
0.198826 16.6574 16.6574 1 1 0
0.198841 16.655 16.655 1 1 0
0.198856 16.6526 16.6526 1 1 0
0.19887 16.6503 16.6503 1 1 0
0.198884 16.6479 16.6479 1 1 0
0.198897 16.6456 16.6456 1 1 0
0.198909 16.6433 16.6433 1 1 0
0.198921 16.641 16.641 1 1 0
0.198932 16.6387 16.6387 1 1 0
0.198942 16.6364 16.6364 1 1 0
0.198952 16.6342 16.6342 1 1 0
0.198961 16.6319 16.6319 1 1 0
0.19897 16.6297 16.6297 1 1 0
0.198977 16.6275 16.6275 1 1 0
0.198984 16.6253 16.6253 1 1 0
0.198991 16.6232 16.6232 1 1 0
0.198996 16.621 16.621 1 1 0
0.199001 16.6189 16.6189 1 1 0
0.199006 16.6167 16.6167 1 1 0
0.199009 16.6146 16.6146 1 1 0
0.199012 16.6125 16.6125 1 1 0
0.199014 16.6104 16.6104 1 1 0
0.199015 16.6084 16.6084 1 1 0
0.199015 16.6063 16.6063 1 1 0
0.199015 16.6061 16.6061 1 1 0
0.199015 16.6041 16.6041 2 1 0
0.199014 16.6021 16.6021 2 1 0
0.199012 16.6001 16.6001 2 1 0
0.199009 16.5981 16.5981 2 1 0
0.199006 16.5961 16.5961 2 1 0
0.199001 16.5941 16.5941 2 1 0
0.198996 16.5922 16.5922 2 1 0
0.19899 16.5902 16.5902 2 1 0
0.198983 16.5883 16.5883 2 1 0
0.198975 16.5864 16.5864 2 1 0
0.198966 16.5845 16.5845 2 1 0
0.198957 16.5827 16.5827 2 1 0
0.198946 16.5808 16.5808 2 1 0
0.198935 16.5789 16.5789 2 1 0
0.198923 16.5771 16.5771 2 1 0
0.19891 16.5753 16.5753 2 1 0
0.198896 16.5735 16.5735 2 1 0
0.198881 16.5717 16.5717 2 1 0
0.198865 16.5699 16.5699 2 1 0
0.198848 16.5682 16.5682 2 1 0
0.19883 16.5664 16.5664 2 1 0
0.198811 16.5647 16.5647 2 1 0
0.198791 16.563 16.563 2 1 0
0.19877 16.5613 16.5613 2 1 0
0.198749 16.5596 16.5596 2 1 0
0.198726 16.5579 16.5579 2 1 0
0.198702 16.5563 16.5563 2 1 0
0.198677 16.5546 16.5546 2 1 0
0.198651 16.553 16.553 2 1 0
0.198624 16.5514 16.5514 2 1 0
0.198596 16.5497 16.5497 2 1 0
0.198566 16.5482 16.5482 2 1 0
0.198536 16.5466 16.5466 2 1 0
0.198505 16.545 16.545 2 1 0
0.198472 16.5435 16.5435 2 1 0
0.198438 16.5419 16.5419 2 1 0
0.198404 16.5404 16.5404 2 1 0
0.198368 16.5389 16.5389 2 1 0
0.198331 16.5374 16.5374 2 1 0
0.198292 16.5359 16.5359 2 1 0
0.198253 16.5344 16.5344 2 1 0
0.198212 16.533 16.533 2 1 0
0.19817 16.5315 16.5315 2 1 0
0.198127 16.5301 16.5301 2 1 0
0.198083 16.5287 16.5287 2 1 0
0.198037 16.5273 16.5273 2 1 0
0.19799 16.5259 16.5259 2 1 0
0.197942 16.5245 16.5245 2 1 0
0.197892 16.5231 16.5231 2 1 0
0.197842 16.5218 16.5218 2 1 0
0.19779 16.5204 16.5204 2 1 0
0.197736 16.5191 16.5191 2 1 0
0.197681 16.5178 16.5178 2 1 0
0.197625 16.5164 16.5164 2 1 0
0.197568 16.5152 16.5152 2 1 0
0.197509 16.5139 16.5139 2 1 0
0.197449 16.5126 16.5126 2 1 0
0.197387 16.5113 16.5113 2 1 0
0.197324 16.5101 16.5101 2 1 0
0.197259 16.5089 16.5089 2 1 0
0.197193 16.5076 16.5076 2 1 0
0.197126 16.5064 16.5064 2 1 0
0.197057 16.5052 16.5052 2 1 0
0.196986 16.504 16.504 2 1 0
0.196914 16.5029 16.5029 2 1 0
0.196841 16.5017 16.5017 2 1 0
0.196766 16.5005 16.5005 2 1 0
0.196689 16.4994 16.4994 2 1 0
0.196611 16.4983 16.4983 2 1 0
0.196531 16.4972 16.4972 2 1 0
0.19645 16.496 16.496 2 1 0
0.196367 16.495 16.495 2 1 0
0.196282 16.4939 16.4939 2 1 0
0.196196 16.4928 16.4928 2 1 0
0.196108 16.4917 16.4917 2 1 0
0.196019 16.4907 16.4907 2 1 0
0.195927 16.4896 16.4896 2 1 0
0.195834 16.4886 16.4886 2 1 0
0.195739 16.4876 16.4876 2 1 0
0.195643 16.4866 16.4866 2 1 0
0.195545 16.4856 16.4856 2 1 0
0.195444 16.4846 16.4846 2 1 0
0.195343 16.4836 16.4836 2 1 0
0.195239 16.4826 16.4826 2 1 0
0.195133 16.4817 16.4817 2 1 0
0.195026 16.4807 16.4807 2 1 0
0.194916 16.4798 16.4798 2 1 0
0.194805 16.4789 16.4789 2 1 0
0.194692 16.478 16.478 2 1 0
0.194577 16.4771 16.4771 2 1 0
0.19446 16.4762 16.4762 2 1 0
0.194341 16.4753 16.4753 2 1 0
0.19422 16.4744 16.4744 2 1 0
0.194097 16.4735 16.4735 2 1 0
0.193972 16.4727 16.4727 2 1 0
0.193845 16.4718 16.4718 2 1 0
0.193715 16.471 16.471 2 1 0
0.193584 16.4702 16.4702 2 1 0
0.193451 16.4694 16.4694 2 1 0
0.193315 16.4686 16.4686 2 1 0
0.193177 16.4678 16.4678 2 1 0
0.193037 16.467 16.467 2 1 0
0.192895 16.4662 16.4662 2 1 0
0.192751 16.4654 16.4654 2 1 0
0.192604 16.4647 16.4647 2 1 0
0.192455 16.4639 16.4639 2 1 0
0.192304 16.4632 16.4632 2 1 0
0.19215 16.4624 16.4624 2 1 0
0.191995 16.4617 16.4617 2 1 0
0.191836 16.461 16.461 2 1 0
0.191676 16.4603 16.4603 2 1 0
0.191513 16.4596 16.4596 2 1 0
0.191347 16.4589 16.4589 2 1 0
0.191179 16.4582 16.4582 2 1 0
0.191009 16.4576 16.4576 2 1 0
0.190836 16.4569 16.4569 2 1 0
0.19066 16.4562 16.4562 2 1 0
0.190482 16.4556 16.4556 2 1 0
0.190301 16.455 16.455 2 1 0
0.190118 16.4543 16.4543 2 1 0
0.189932 16.4537 16.4537 2 1 0
0.189744 16.4531 16.4531 2 1 0
0.189552 16.4525 16.4525 2 1 0
0.189358 16.4519 16.4519 2 1 0
0.189161 16.4513 16.4513 2 1 0
0.188962 16.4507 16.4507 2 1 0
0.188759 16.4502 16.4502 2 1 0
0.188554 16.4496 16.4496 2 1 0
0.188346 16.4491 16.4491 2 1 0
0.188134 16.4485 16.4485 2 1 0
0.18792 16.448 16.448 2 1 0
0.187703 16.4474 16.4474 2 1 0
0.187483 16.4469 16.4469 2 1 0
0.18726 16.4464 16.4464 2 1 0
0.187034 16.4459 16.4459 2 1 0
0.186805 16.4454 16.4454 2 1 0
0.186573 16.4449 16.4449 2 1 0
0.186337 16.4444 16.4444 2 1 0
0.186098 16.444 16.444 2 1 0
0.185856 16.4435 16.4435 2 1 0
0.185611 16.443 16.443 2 1 0
0.185363 16.4426 16.4426 2 1 0
0.185111 16.4421 16.4421 2 1 0
0.184856 16.4417 16.4417 2 1 0
0.184597 16.4413 16.4413 2 1 0
0.184335 16.4409 16.4409 2 1 0
0.184069 16.4404 16.4404 2 1 0
0.1838 16.44 16.44 2 1 0
0.183527 16.4396 16.4396 2 1 0
0.183251 16.4392 16.4392 2 1 0
0.182971 16.4389 16.4389 2 1 0
0.182688 16.4385 16.4385 2 1 0
0.182401 16.4381 16.4381 2 1 0
0.182109 16.4377 16.4377 2 1 0
0.181815 16.4374 16.4374 2 1 0
0.181516 16.437 16.437 2 1 0
0.181213 16.4367 16.4367 2 1 0
0.180907 16.4364 16.4364 2 1 0
0.180597 16.436 16.436 2 1 0
0.180282 16.4357 16.4357 2 1 0
0.179964 16.4354 16.4354 2 1 0
0.179641 16.4351 16.4351 2 1 0
0.179314 16.4348 16.4348 2 1 0
0.178984 16.4345 16.4345 2 1 0
0.178648 16.4342 16.4342 2 1 0
0.178309 16.4339 16.4339 2 1 0
0.177965 16.4337 16.4337 2 1 0
0.177617 16.4334 16.4334 2 1 0
0.177265 16.4332 16.4332 2 1 0
0.176908 16.4329 16.4329 2 1 0
0.176546 16.4327 16.4327 2 1 0
0.17618 16.4324 16.4324 2 1 0
0.175809 16.4322 16.4322 2 1 0
0.175434 16.432 16.432 2 1 0
0.175054 16.4318 16.4318 2 1 0
0.174669 16.4316 16.4316 2 1 0
0.174279 16.4314 16.4314 2 1 0
0.173884 16.4312 16.4312 2 1 0
0.173485 16.431 16.431 2 1 0
0.17308 16.4308 16.4308 2 1 0
0.172671 16.4306 16.4306 2 1 0
0.172256 16.4305 16.4305 2 1 0
0.171836 16.4303 16.4303 2 1 0
0.171411 16.4302 16.4302 2 1 0
0.17098 16.43 16.43 2 1 0
0.170545 16.4299 16.4299 2 1 0
0.170103 16.4298 16.4298 2 1 0
0.169657 16.4296 16.4296 2 1 0
0.169205 16.4295 16.4295 2 1 0
0.168747 16.4294 16.4294 2 1 0
0.168283 16.4293 16.4293 2 1 0
0.167814 16.4292 16.4292 2 1 0
0.167339 16.4291 16.4291 2 1 0
0.166858 16.4291 16.4291 2 1 0
0.166372 16.429 16.429 2 1 0
0.165879 16.4289 16.4289 2 1 0
0.16538 16.4289 16.4289 2 1 0
0.164875 16.4288 16.4288 2 1 0
0.164364 16.4288 16.4288 2 1 0
0.163846 16.4287 16.4287 2 1 0
0.163323 16.4287 16.4287 2 1 0
0.162793 16.4287 16.4287 2 1 0
0.162256 16.4287 16.4287 2 1 0
0.161713 16.4287 16.4287 2 1 0
0.161163 16.4287 16.4287 2 1 0
0.160606 16.4287 16.4287 2 1 0
0.160043 16.4287 16.4287 2 1 0
0.159473 16.4288 16.4288 2 1 0
0.158895 16.4288 16.4288 2 1 0
0.158311 16.4288 16.4288 2 1 0
0.15772 16.4289 16.4289 2 1 0
0.157121 16.429 16.429 2 1 0
0.156516 16.429 16.429 2 1 0
0.155902 16.4291 16.4291 2 1 0
0.155282 16.4292 16.4292 2 1 0
0.154654 16.4293 16.4293 2 1 0
0.154018 16.4294 16.4294 2 1 0
0.153375 16.4295 16.4295 2 1 0
0.152724 16.4296 16.4296 2 1 0
0.152065 16.4298 16.4298 2 1 0
0.151398 16.4299 16.4299 2 1 0
0.150723 16.4301 16.4301 2 1 0
0.15004 16.4302 16.4302 2 1 0
0.149348 16.4304 16.4304 2 1 0
0.148649 16.4306 16.4306 2 1 0
0.147941 16.4308 16.4308 2 1 0
0.147224 16.4309 16.4309 2 1 0
0.146499 16.4312 16.4312 2 1 0
0.145765 16.4314 16.4314 2 1 0
0.145023 16.4316 16.4316 2 1 0
0.144271 16.4318 16.4318 2 1 0
0.143511 16.4321 16.4321 2 1 0
0.142742 16.4324 16.4324 2 1 0
0.141963 16.4326 16.4326 2 1 0
0.141176 16.4329 16.4329 2 1 0
0.140379 16.4332 16.4332 2 1 0
0.139573 16.4335 16.4335 2 1 0
0.138757 16.4338 16.4338 2 1 0
0.137931 16.4342 16.4342 2 1 0
0.137096 16.4345 16.4345 2 1 0
0.136251 16.4349 16.4349 2 1 0
0.135397 16.4353 16.4353 2 1 0
0.134532 16.4356 16.4356 2 1 0
0.133658 16.436 16.436 2 1 0
0.132773 16.4365 16.4365 2 1 0
0.131878 16.4369 16.4369 2 1 0
0.130973 16.4373 16.4373 2 1 0
0.130058 16.4378 16.4378 2 1 0
0.129132 16.4382 16.4382 2 1 0
0.128196 16.4387 16.4387 2 1 0
0.127249 16.4392 16.4392 2 1 0
0.126292 16.4397 16.4397 2 1 0
0.125324 16.4403 16.4403 2 1 0
0.124346 16.4408 16.4408 2 1 0
0.123356 16.4414 16.4414 2 1 0
0.122356 16.442 16.442 2 1 0
0.121345 16.4426 16.4426 2 1 0
0.120324 16.4432 16.4432 2 1 0
0.119291 16.4438 16.4438 2 1 0
0.118248 16.4445 16.4445 2 1 0
0.117193 16.4451 16.4451 2 1 0
0.116128 16.4458 16.4458 2 1 0
0.115052 16.4466 16.4466 2 1 0
0.113965 16.4473 16.4473 2 1 0
0.112867 16.448 16.448 2 1 0
0.111758 16.4488 16.4488 2 1 0
0.110639 16.4496 16.4496 2 1 0
0.109509 16.4504 16.4504 2 1 0
0.108369 16.4513 16.4513 2 1 0
0.107218 16.4522 16.4522 2 1 0
0.106057 16.453 16.453 2 1 0
0.104885 16.454 16.454 2 1 0
0.103703 16.4549 16.4549 2 1 0
0.102512 16.4559 16.4559 2 1 0
0.101311 16.4569 16.4569 2 1 0
0.1001 16.4579 16.4579 2 1 0
0.0988801 16.4589 16.4589 2 1 0
0.0976511 16.46 16.46 2 1 0
0.0964133 16.4611 16.4611 2 1 0
0.0951671 16.4622 16.4622 2 1 0
0.0939128 16.4634 16.4634 2 1 0
0.0926506 16.4646 16.4646 2 1 0
0.091381 16.4658 16.4658 2 1 0
0.0901044 16.467 16.467 2 1 0
0.0888212 16.4683 16.4683 2 1 0
0.0875318 16.4696 16.4696 2 1 0
0.0862367 16.4709 16.4709 2 1 0
0.0849363 16.4723 16.4723 2 1 0
0.0836313 16.4737 16.4737 2 1 0
0.082322 16.4751 16.4751 2 1 0
0.0810092 16.4766 16.4766 2 1 0
0.0796933 16.4781 16.4781 2 1 0
0.0783749 16.4796 16.4796 2 1 0
0.0770547 16.4812 16.4812 2 1 0
0.0757333 16.4828 16.4828 2 1 0
0.0744113 16.4844 16.4844 2 1 0
0.0730894 16.486 16.486 2 1 0
0.0717681 16.4877 16.4877 2 1 0
0.0704483 16.4894 16.4894 2 1 0
0.0691304 16.4912 16.4912 2 1 0
0.0678152 16.493 16.493 2 1 0
0.0665034 16.4948 16.4948 2 1 0
0.0651954 16.4966 16.4966 2 1 0
0.0638921 16.4985 16.4985 2 1 0
0.062594 16.5004 16.5004 2 1 0
0.0613017 16.5023 16.5023 2 1 0
0.0600158 16.5042 16.5042 2 1 0
0.0587368 16.5062 16.5062 2 1 0
0.0574654 16.5082 16.5082 2 1 0
0.0562019 16.5103 16.5103 2 1 0
0.0549469 16.5123 16.5123 2 1 0
0.0537008 16.5144 16.5144 2 1 0
0.0524642 16.5165 16.5165 2 1 0
0.0512372 16.5187 16.5187 2 1 0
0.0500204 16.5208 16.5208 2 1 0
0.0488141 16.523 16.523 2 1 0
0.0476186 16.5252 16.5252 2 1 0
0.0464341 16.5274 16.5274 2 1 0
0.0452609 16.5296 16.5296 2 1 0
0.0440992 16.5319 16.5319 2 1 0
0.0429492 16.5342 16.5342 2 1 0
0.041811 16.5365 16.5365 2 1 0
0.0406848 16.5388 16.5388 2 1 0
0.0395707 16.5411 16.5411 2 1 0
0.0384688 16.5434 16.5434 2 1 0
0.0373791 16.5458 16.5458 2 1 0
0.0363016 16.5482 16.5482 2 1 0
0.0352364 16.5505 16.5505 2 1 0
0.0341835 16.5529 16.5529 2 1 0
0.0331427 16.5554 16.5554 2 1 0
0.0321142 16.5578 16.5578 2 1 0
0.0310978 16.5602 16.5602 2 1 0
0.0300934 16.5626 16.5626 2 1 0
0.0291011 16.5651 16.5651 2 1 0
0.0281206 16.5676 16.5676 2 1 0
0.0271519 16.57 16.57 2 1 0
0.0261948 16.5725 16.5725 2 1 0
0.0252493 16.575 16.575 2 1 0
0.0243152 16.5775 16.5775 2 1 0
0.0233924 16.58 16.58 2 1 0
0.0224806 16.5825 16.5825 2 1 0
0.0215799 16.585 16.585 2 1 0
0.0206899 16.5876 16.5876 2 1 0
0.0198107 16.5901 16.5901 2 1 0
0.0189419 16.5926 16.5926 2 1 0
0.0180835 16.5952 16.5952 2 1 0
0.0172352 16.5977 16.5977 2 1 0
0.016397 16.6003 16.6003 2 1 0
0.0155686 16.6028 16.6028 2 1 0
0.01475 16.6054 16.6054 2 1 0
0.0139408 16.6079 16.6079 2 1 0
0.013141 16.6105 16.6105 2 1 0
0.0123504 16.6131 16.6131 2 1 0
0.0115688 16.6157 16.6157 2 1 0
0.010796 16.6182 16.6182 2 1 0
0.010032 16.6208 16.6208 2 1 0
0.00927652 16.6234 16.6234 2 1 0
0.00852943 16.626 16.626 2 1 0
0.00779057 16.6286 16.6286 2 1 0
0.00705979 16.6312 16.6312 2 1 0
0.00633693 16.6338 16.6338 2 1 0
0.00562184 16.6364 16.6364 2 1 0
0.00491439 16.639 16.639 2 1 0
0.00421442 16.6416 16.6416 2 1 0
0.00352178 16.6442 16.6442 2 1 0
0.00283635 16.6468 16.6468 2 1 0
0.00215798 16.6494 16.6494 2 1 0
0.00148653 16.652 16.652 2 1 0
0.000821881 16.6546 16.6546 2 1 0
0.000163891 16.6572 16.6572 2 1 0
-0.000487565 16.6598 16.6598 2 1 0
0.1 350 350 1 1 0
0.100007 350 350 1 1 0
0.100014 350 350 1 1 0
0.100027 350 350 1 1 0
0.100055 350 350 1 1 0
0.100109 350 350 1 1 0
0.100195 350 350 1 1 0
0.10028 350 350 1 1 0
0.100366 350 350 1 1 0
0.100452 350 350 1 1 0
0.100538 350 350 1 1 0
0.100624 350 350 1 1 0
0.10071 350 350 1 1 0
0.100796 350 350 1 1 0
0.100882 350 350 1 1 0
0.100968 350 350 1 1 0
0.101055 350 350 1 1 0
0.101141 350 350 1 1 0
0.101228 350 350 1 1 0
0.101315 350 350 1 1 0
0.101402 350 350 1 1 0
0.101489 350 350 1 1 0
0.101576 350 350 1 1 0
0.101663 350 350 1 1 0
0.10175 350 350 1 1 0
0.101838 350 350 1 1 0
0.101925 350 350 1 1 0
0.102013 350 350 1 1 0
0.102101 350 350 1 1 0
0.102188 350 350 1 1 0
0.102276 350 350 1 1 0
0.102364 350 350 1 1 0
0.102452 350 350 1 1 0
0.102541 350 350 1 1 0
0.102629 350 350 1 1 0
0.102717 350 350 1 1 0
0.102806 350 350 1 1 0
0.102894 350 350 1 1 0
0.102983 350 350 1 1 0
0.103072 350 350 1 1 0
0.103161 350 350 1 1 0
0.10325 350 350 1 1 0
0.103339 350 350 1 1 0
0.103428 350 350 1 1 0
0.103518 350 350 1 1 0
0.103607 350 350 1 1 0
0.103697 350 350 1 1 0
0.103786 350 350 1 1 0
0.103876 350 350 1 1 0
0.103966 350 350 1 1 0
0.104056 350 350 1 1 0
0.104146 350 350 1 1 0
0.104236 350 350 1 1 0
0.104327 350 350 1 1 0
0.104417 350 350 1 1 0
0.104508 350 350 1 1 0
0.104598 350 350 1 1 0
0.104689 350 350 1 1 0
0.10478 350 350 1 1 0
0.104871 350 350 1 1 0
0.104962 350 350 1 1 0
0.105053 350 350 1 1 0
0.105144 350 350 1 1 0
0.105235 350 350 1 1 0
0.105327 350 350 1 1 0
0.105418 350 350 1 1 0
0.10551 350 350 1 1 0
0.105601 350 350 1 1 0
0.105693 350 350 1 1 0
0.105785 350 350 1 1 0
0.105877 350 350 1 1 0
0.105969 350 350 1 1 0
0.106062 350 350 1 1 0
0.106154 350 350 1 1 0
0.106246 350 350 1 1 0
0.106339 350 350 1 1 0
0.106432 350 350 1 1 0
0.106524 350 350 1 1 0
0.106617 350 350 1 1 0
0.10671 350 350 1 1 0
0.106803 350 350 1 1 0
0.106896 350 350 1 1 0
0.10699 350 350 1 1 0
0.107083 350 350 1 1 0
0.107177 350 350 1 1 0
0.10727 350 350 1 1 0
0.107364 350 350 1 1 0
0.107457 350 350 1 1 0
0.107551 350 350 1 1 0
0.107645 350 350 1 1 0
0.107739 350 350 1 1 0
0.107834 350 350 1 1 0
0.107928 350 350 1 1 0
0.108022 350 350 1 1 0
0.108117 350 350 1 1 0
0.108211 350 350 1 1 0
0.108306 350 350 1 1 0
0.108401 350 350 1 1 0
0.108495 350 350 1 1 0
0.10859 350 350 1 1 0
0.108685 350 350 1 1 0
0.10878 350 350 1 1 0
0.108876 350 350 1 1 0
0.108971 350 350 1 1 0
0.109066 350 350 1 1 0
0.109162 350 350 1 1 0
0.109258 350 350 1 1 0
0.109353 350 350 1 1 0
0.109449 350 350 1 1 0
0.109545 350 350 1 1 0
0.109641 350 350 1 1 0
0.109737 350 350 1 1 0
0.109833 350 350 1 1 0
0.109929 350 350 1 1 0
0.110026 350 350 1 1 0
0.110122 350 350 1 1 0
0.110219 350 350 1 1 0
0.110315 350 350 1 1 0
0.110412 350 350 1 1 0
0.110509 350 350 1 1 0
0.110606 350 350 1 1 0
0.110703 350 350 1 1 0
0.1108 350 350 1 1 0
0.110897 350 350 1 1 0
0.110994 350 350 1 1 0
0.111092 350 350 1 1 0
0.111189 350 350 1 1 0
0.111287 350 350 1 1 0
0.111384 350 350 1 1 0
0.111482 350 350 1 1 0
0.11158 350 350 1 1 0
0.111678 350 350 1 1 0
0.111776 350 350 1 1 0
0.111874 350 350 1 1 0
0.111972 350 350 1 1 0
0.11207 350 350 1 1 0
0.112168 350 350 1 1 0
0.112267 350 350 1 1 0
0.112365 350 350 1 1 0
0.112463 350 350 1 1 0
0.112562 350 350 1 1 0
0.112661 350 350 1 1 0
0.11276 350 350 1 1 0
0.112858 350 350 1 1 0
0.112957 350 350 1 1 0
0.113056 350 350 1 1 0
0.113155 350 350 1 1 0
0.113255 350 350 1 1 0
0.113354 350 350 1 1 0
0.113453 350 350 1 1 0
0.113552 350 350 1 1 0
0.113652 350 350 1 1 0
0.113751 350 350 1 1 0
0.113851 350 350 1 1 0
0.113951 350 350 1 1 0
0.11405 350 350 1 1 0
0.11415 350 350 1 1 0
0.11425 350 350 1 1 0
0.11435 350 350 1 1 0
0.11445 350 350 1 1 0
0.11455 350 350 1 1 0
0.11465 350 350 1 1 0
0.11475 350 350 1 1 0
0.114851 350 350 1 1 0
0.114951 350 350 1 1 0
0.115051 350 350 1 1 0
0.115152 350 350 1 1 0
0.115252 350 350 1 1 0
0.115353 350 350 1 1 0
0.115454 350 350 1 1 0
0.115554 350 350 1 1 0
0.115655 350 350 1 1 0
0.115756 350 350 1 1 0
0.115857 350 350 1 1 0
0.115958 350 350 1 1 0
0.116059 350 350 1 1 0
0.11616 350 350 1 1 0
0.116261 350 350 1 1 0
0.116362 350 350 1 1 0
0.116464 350 350 1 1 0
0.116565 350 350 1 1 0
0.116666 350 350 1 1 0
0.116768 350 350 1 1 0
0.116869 350 350 1 1 0
0.116971 350 350 1 1 0
0.117072 350 350 1 1 0
0.117174 350 350 1 1 0
0.117275 350 350 1 1 0
0.117377 350 350 1 1 0
0.117479 350 350 1 1 0
0.11758 350 350 1 1 0
0.117682 350 350 1 1 0
0.117784 350 350 1 1 0
0.117886 350 350 1 1 0
0.117988 350 350 1 1 0
0.11809 350 350 1 1 0
0.118192 350 350 1 1 0
0.118294 350 350 1 1 0
0.118396 350 350 1 1 0
0.118498 350 350 1 1 0
0.118601 350 350 1 1 0
0.118703 350 350 1 1 0
0.118805 350 350 1 1 0
0.118907 350 350 1 1 0
0.11901 350 350 1 1 0
0.119112 350 350 1 1 0
0.119214 350 350 1 1 0
0.119317 350 350 1 1 0
0.119419 350 350 1 1 0
0.119522 350 350 1 1 0
0.119624 350 350 1 1 0
0.119727 350 350 1 1 0
0.119829 350 350 1 1 0
0.119932 350 350 1 1 0
0.120034 350 350 1 1 0
0.120137 350 350 1 1 0
0.12024 350 350 1 1 0
0.120342 350 350 1 1 0
0.120445 350 350 1 1 0
0.120548 350 350 1 1 0
0.12065 350 350 1 1 0
0.120753 350 350 1 1 0
0.120856 350 350 1 1 0
0.120959 350 350 1 1 0
0.121062 350 350 1 1 0
0.121164 350 350 1 1 0
0.121267 350 350 1 1 0
0.12137 350 350 1 1 0
0.121473 350 350 1 1 0
0.121576 350 350 1 1 0
0.121679 350 350 1 1 0
0.121781 350 350 1 1 0
0.121884 350 350 1 1 0
0.121987 350 350 1 1 0
0.12209 350 350 1 1 0
0.122193 350 350 1 1 0
0.122296 350 350 1 1 0
0.122399 350 350 1 1 0
0.122502 350 350 1 1 0
0.122605 350 350 1 1 0
0.122708 350 350 1 1 0
0.12281 350 350 1 1 0
0.122913 350 350 1 1 0
0.123016 350 350 1 1 0
0.123119 350 350 1 1 0
0.123222 350 350 1 1 0
0.123325 350 350 1 1 0
0.123428 350 350 1 1 0
0.123531 350 350 1 1 0
0.123634 350 350 1 1 0
0.123737 350 350 1 1 0
0.123839 350 350 1 1 0
0.123942 350 350 1 1 0
0.124045 350 350 1 1 0
0.124148 350 350 1 1 0
0.124251 350 350 1 1 0
0.124354 350 350 1 1 0
0.124456 350 350 1 1 0
0.124559 350 350 1 1 0
0.124662 350 350 1 1 0
0.124765 350 350 1 1 0
0.124867 350 350 1 1 0
0.12497 350 350 1 1 0
0.125073 350 350 1 1 0
0.125175 350 350 1 1 0
0.125278 350 350 1 1 0
0.125381 350 350 1 1 0
0.125483 350 350 1 1 0
0.125586 350 350 1 1 0
0.125688 350 350 1 1 0
0.125791 350 350 1 1 0
0.125893 350 350 1 1 0
0.125996 350 350 1 1 0
0.126098 350 350 1 1 0
0.126201 350 350 1 1 0
0.126303 350 350 1 1 0
0.126405 350 350 1 1 0
0.126508 350 350 1 1 0
0.12661 350 350 1 1 0
0.126712 350 350 1 1 0
0.126814 350 350 1 1 0
0.126917 350 350 1 1 0
0.127019 350 350 1 1 0
0.127121 350 350 1 1 0
0.127223 350 350 1 1 0
0.127325 350 350 1 1 0
0.127427 350 350 1 1 0
0.127529 350 350 1 1 0
0.127631 350 350 1 1 0
0.127733 350 350 1 1 0
0.127835 350 350 1 1 0
0.127936 350 350 1 1 0
0.128038 350 350 1 1 0
0.12814 350 350 1 1 0
0.128242 350 350 1 1 0
0.128343 350 350 1 1 0
0.128445 350 350 1 1 0
0.128546 350 350 1 1 0
0.128648 350 350 1 1 0
0.128749 350 350 1 1 0
0.128851 350 350 1 1 0
0.128952 350 350 1 1 0
0.129053 350 350 1 1 0
0.129154 350 350 1 1 0
0.129256 350 350 1 1 0
0.129357 350 350 1 1 0
0.129458 350 350 1 1 0
0.129559 350 350 1 1 0
0.12966 350 350 1 1 0
0.129761 350 350 1 1 0
0.129861 350 350 1 1 0
0.129962 350 350 1 1 0
0.130063 350 350 1 1 0
0.130164 350 350 1 1 0
0.130264 350 350 1 1 0
0.130365 350 350 1 1 0
0.130465 350 350 1 1 0
0.130566 350 350 1 1 0
0.130666 350 350 1 1 0
0.130767 350 350 1 1 0
0.130867 350 350 1 1 0
0.130967 350 350 1 1 0
0.131067 350 350 1 1 0
0.131167 350 350 1 1 0
0.131267 350 350 1 1 0
0.131367 350 350 1 1 0
0.131467 350 350 1 1 0
0.131567 350 350 1 1 0
0.131667 350 350 1 1 0
0.131766 350 350 1 1 0
0.131866 350 350 1 1 0
0.131965 350 350 1 1 0
0.132065 350 350 1 1 0
0.132164 350 350 1 1 0
0.132263 350 350 1 1 0
0.132363 350 350 1 1 0
0.132462 350 350 1 1 0
0.132561 350 350 1 1 0
0.13266 350 350 1 1 0
0.132759 350 350 1 1 0
0.132858 350 350 1 1 0
0.132957 350 350 1 1 0
0.133055 350 350 1 1 0
0.133154 350 350 1 1 0
0.133253 350 350 1 1 0
0.133351 350 350 1 1 0
0.13345 350 350 1 1 0
0.133548 350 350 1 1 0
0.133646 350 350 1 1 0
0.133744 350 350 1 1 0
0.133842 350 350 1 1 0
0.133941 350 350 1 1 0
0.134038 350 350 1 1 0
0.134136 350 350 1 1 0
0.134234 350 350 1 1 0
0.134332 350 350 1 1 0
0.134429 350 350 1 1 0
0.134527 350 350 1 1 0
0.134624 350 350 1 1 0
0.134722 350 350 1 1 0
0.134819 350 350 1 1 0
0.134916 350 350 1 1 0
0.135013 350 350 1 1 0
0.135111 350 350 1 1 0
0.135207 350 350 1 1 0
0.135304 350 350 1 1 0
0.135401 350 350 1 1 0
0.135498 350 350 1 1 0
0.135594 350 350 1 1 0
0.135691 350 350 1 1 0
0.135787 350 350 1 1 0
0.135884 350 350 1 1 0
0.13598 350 350 1 1 0
0.136076 350 350 1 1 0
0.136172 350 350 1 1 0
0.136268 350 350 1 1 0
0.136364 350 350 1 1 0
0.13646 350 350 1 1 0
0.136556 350 350 1 1 0
0.136651 350 350 1 1 0
0.136747 350 350 1 1 0
0.136842 350 350 1 1 0
0.136937 350 350 1 1 0
0.137033 350 350 1 1 0
0.137128 350 350 1 1 0
0.137223 350 350 1 1 0
0.137318 350 350 1 1 0
0.137413 350 350 1 1 0
0.137507 350 350 1 1 0
0.137602 350 350 1 1 0
0.137697 350 350 1 1 0
0.137791 350 350 1 1 0
0.137885 350 350 1 1 0
0.13798 350 350 1 1 0
0.138074 350 350 1 1 0
0.138168 350 350 1 1 0
0.138262 350 350 1 1 0
0.138356 350 350 1 1 0
0.13845 350 350 1 1 0
0.138543 350 350 1 1 0
0.138637 350 350 1 1 0
0.13873 350 350 1 1 0
0.138824 350 350 1 1 0
0.138917 350 350 1 1 0
0.13901 350 350 1 1 0
0.139103 350 350 1 1 0
0.139196 350 350 1 1 0
0.139289 350 350 1 1 0
0.139382 350 350 1 1 0
0.139475 350 350 1 1 0
0.139567 350 350 1 1 0
0.13966 350 350 1 1 0
0.139752 350 350 1 1 0
0.139844 350 350 1 1 0
0.139936 350 350 1 1 0
0.140028 350 350 1 1 0
0.14012 350 350 1 1 0
0.140212 350 350 1 1 0
0.140304 350 350 1 1 0
0.140395 350 350 1 1 0
0.140487 350 350 1 1 0
0.140578 350 350 1 1 0
0.140669 350 350 1 1 0
0.140761 350 350 1 1 0
0.140852 350 350 1 1 0
0.140943 350 350 1 1 0
0.141034 350 350 1 1 0
0.141124 350 350 1 1 0
0.141215 350 350 1 1 0
0.141305 350 350 1 1 0
0.141396 350 350 1 1 0
0.141486 350 350 1 1 0
0.141576 350 350 1 1 0
0.141666 350 350 1 1 0
0.141756 350 350 1 1 0
0.141846 350 350 1 1 0
0.141936 350 350 1 1 0
0.142025 350 350 1 1 0
0.142115 350 350 1 1 0
0.142204 350 350 1 1 0
0.142294 350 350 1 1 0
0.142383 350 350 1 1 0
0.142472 350 350 1 1 0
0.142561 350 350 1 1 0
0.14265 350 350 1 1 0
0.142738 350 350 1 1 0
0.142827 350 350 1 1 0
0.142915 350 350 1 1 0
0.143004 350 350 1 1 0
0.143092 350 350 1 1 0
0.14318 350 350 1 1 0
0.143268 350 350 1 1 0
0.143356 350 350 1 1 0
0.143444 350 350 1 1 0
0.143531 350 350 1 1 0
0.143619 350 350 1 1 0
0.143706 350 350 1 1 0
0.143794 350 350 1 1 0
0.143881 350 350 1 1 0
0.143968 350 350 1 1 0
0.144055 350 350 1 1 0
0.144142 350 350 1 1 0
0.144228 350 350 1 1 0
0.144315 350 350 1 1 0
0.144401 350 350 1 1 0
0.144488 350 350 1 1 0
0.144574 350 350 1 1 0
0.14466 350 350 1 1 0
0.144746 350 350 1 1 0
0.144832 350 350 1 1 0
0.144917 350 350 1 1 0
0.145003 350 350 1 1 0
0.145088 350 350 1 1 0
0.145174 350 350 1 1 0
0.145259 350 350 1 1 0
0.145344 350 350 1 1 0
0.145429 350 350 1 1 0
0.145514 350 350 1 1 0
0.145598 350 350 1 1 0
0.145683 350 350 1 1 0
0.145767 350 350 1 1 0
0.145852 350 350 1 1 0
0.145936 350 350 1 1 0
0.14602 350 350 1 1 0
0.146104 350 350 1 1 0
0.146188 350 350 1 1 0
0.146271 350 350 1 1 0
0.146355 350 350 1 1 0
0.146438 350 350 1 1 0
0.146522 350 350 1 1 0
0.146605 350 350 1 1 0
0.146688 350 350 1 1 0
0.146771 350 350 1 1 0
0.146853 350 350 1 1 0
0.146936 350 350 1 1 0
0.147019 350 350 1 1 0
0.147101 350 350 1 1 0
0.147183 350 350 1 1 0
0.147265 350 350 1 1 0
0.147347 350 350 1 1 0
0.147429 350 350 1 1 0
0.147511 350 350 1 1 0
0.147592 350 350 1 1 0
0.147674 350 350 1 1 0
0.147755 350 350 1 1 0
0.147836 350 350 1 1 0
0.147917 350 350 1 1 0
0.147998 350 350 1 1 0
0.148079 350 350 1 1 0
0.148159 350 350 1 1 0
0.14824 350 350 1 1 0
0.14832 350 350 1 1 0
0.1484 350 350 1 1 0
0.14848 350 350 1 1 0
0.14856 350 350 1 1 0
0.14864 350 350 1 1 0
0.148719 350 350 1 1 0
0.148799 350 350 1 1 0
0.148878 350 350 1 1 0
0.148957 350 350 1 1 0
0.149036 350 350 1 1 0
0.149115 350 350 1 1 0
0.149194 350 350 1 1 0
0.149272 350 350 1 1 0
0.149351 350 350 1 1 0
0.149429 350 350 1 1 0
0.149507 350 350 1 1 0
0.149585 350 350 1 1 0
0.149663 350 350 1 1 0
0.149741 350 350 1 1 0
0.149818 350 350 1 1 0
0.149896 350 350 1 1 0
0.149973 350 350 1 1 0
0.15005 350 350 1 1 0
0.150127 350 350 1 1 0
0.150204 350 350 1 1 0
0.150281 350 350 1 1 0
0.150357 350 350 1 1 0
0.150433 350 350 1 1 0
0.15051 350 350 1 1 0
0.150586 350 350 1 1 0
0.150662 350 350 1 1 0
0.150737 350 350 1 1 0
0.150813 350 350 1 1 0
0.150888 350 350 1 1 0
0.150964 350 350 1 1 0
0.151039 350 350 1 1 0
0.151114 350 350 1 1 0
0.151188 350 350 1 1 0
0.151263 350 350 1 1 0
0.151338 350 350 1 1 0
0.151412 350 350 1 1 0
0.151486 350 350 1 1 0
0.15156 350 350 1 1 0
0.151634 350 350 1 1 0
0.151708 350 350 1 1 0
0.151781 350 350 1 1 0
0.151854 350 350 1 1 0
0.151928 350 350 1 1 0
0.152001 350 350 1 1 0
0.152074 350 350 1 1 0
0.152146 350 350 1 1 0
0.152219 350 350 1 1 0
0.152291 350 350 1 1 0
0.152363 350 350 1 1 0
0.152435 350 350 1 1 0
0.152507 350 350 1 1 0
0.152579 350 350 1 1 0
0.15265 350 350 1 1 0
0.152722 350 350 1 1 0
0.152793 350 350 1 1 0
0.152864 350 350 1 1 0
0.152935 350 350 1 1 0
0.153005 350 350 1 1 0
0.153076 350 350 1 1 0
0.153146 350 350 1 1 0
0.153216 350 350 1 1 0
0.153286 350 350 1 1 0
0.153356 350 350 1 1 0
0.153426 350 350 1 1 0
0.153495 350 350 1 1 0
0.153564 350 350 1 1 0
0.153634 350 350 1 1 0
0.153702 350 350 1 1 0
0.153771 350 350 1 1 0
0.15384 350 350 1 1 0
0.153908 350 350 1 1 0
0.153976 350 350 1 1 0
0.154044 350 350 1 1 0
0.154112 350 350 1 1 0
0.15418 350 350 1 1 0
0.154247 350 350 1 1 0
0.154314 350 350 1 1 0
0.154381 350 350 1 1 0
0.154448 350 350 1 1 0
0.154515 350 350 1 1 0
0.154581 350 350 1 1 0
0.154648 350 350 1 1 0
0.154714 350 350 1 1 0
0.15478 350 350 1 1 0
0.154845 350 350 1 1 0
0.154911 350 350 1 1 0
0.154976 350 350 1 1 0
0.155041 350 350 1 1 0
0.155106 350 350 1 1 0
0.155171 350 350 1 1 0
0.155236 350 350 1 1 0
0.1553 350 350 1 1 0
0.155364 350 350 1 1 0
0.155428 350 350 1 1 0
0.155492 350 350 1 1 0
0.155555 350 350 1 1 0
0.155619 350 350 1 1 0
0.155682 350 350 1 1 0
0.155745 350 350 1 1 0
0.155808 350 350 1 1 0
0.15587 350 350 1 1 0
0.155932 350 350 1 1 0
0.155995 350 350 1 1 0
0.156056 350 350 1 1 0
0.156118 350 350 1 1 0
0.15618 350 350 1 1 0
0.156241 350 350 1 1 0
0.156302 350 350 1 1 0
0.156363 350 350 1 1 0
0.156423 350 350 1 1 0
0.156484 350 350 1 1 0
0.156544 350 350 1 1 0
0.156604 350 350 1 1 0
0.156664 350 350 1 1 0
0.156723 350 350 1 1 0
0.156782 350 350 1 1 0
0.156842 350 350 1 1 0
0.1569 350 350 1 1 0
0.156959 350 350 1 1 0
0.157017 350 350 1 1 0
0.157076 350 350 1 1 0
0.157134 350 350 1 1 0
0.157191 350 350 1 1 0
0.157249 350 350 1 1 0
0.157306 350 350 1 1 0
0.157363 350 350 1 1 0
0.15742 350 350 1 1 0
0.157476 350 350 1 1 0
0.157533 350 350 1 1 0
0.157589 350 350 1 1 0
0.157645 350 350 1 1 0
0.1577 350 350 1 1 0
0.157756 350 350 1 1 0
0.157811 350 350 1 1 0
0.157866 350 350 1 1 0
0.15792 350 350 1 1 0
0.157975 350 350 1 1 0
0.158029 350 350 1 1 0
0.158083 350 350 1 1 0
0.158136 350 350 1 1 0
0.15819 350 350 1 1 0
0.158243 350 350 1 1 0
0.158296 350 350 1 1 0
0.158348 350 350 1 1 0
0.158401 350 350 1 1 0
0.158453 350 350 1 1 0
0.158505 350 350 1 1 0
0.158556 350 350 1 1 0
0.158608 350 350 1 1 0
0.158659 350 350 1 1 0
0.15871 350 350 1 1 0
0.15876 350 350 1 1 0
0.158811 350 350 1 1 0
0.158861 350 350 1 1 0
0.15891 350 350 1 1 0
0.15896 350 350 1 1 0
0.159009 350 350 1 1 0
0.159058 350 350 1 1 0
0.159107 350 350 1 1 0
0.159155 350 350 1 1 0
0.159203 350 350 1 1 0
0.159251 350 350 1 1 0
0.159299 350 350 1 1 0
0.159346 350 350 1 1 0
0.159393 350 350 1 1 0
0.159439 350 350 1 1 0
0.159486 350 350 1 1 0
0.159532 350 350 1 1 0
0.159578 350 350 1 1 0
0.159623 350 350 1 1 0
0.159669 350 350 1 1 0
0.159714 350 350 1 1 0
0.159758 350 350 1 1 0
0.159803 350 350 1 1 0
0.159847 350 350 1 1 0
0.15989 350 350 1 1 0
0.159934 350 350 1 1 0
0.159977 350 350 1 1 0
0.16002 350 350 1 1 0
0.160062 350 350 1 1 0
0.160105 350 350 1 1 0
0.160147 350 350 1 1 0
0.160188 350 350 1 1 0
0.160229 350 350 1 1 0
0.16027 350 350 1 1 0
0.160311 350 350 1 1 0
0.160351 350 350 1 1 0
0.160391 350 350 1 1 0
0.160431 350 350 1 1 0
0.16047 350 350 1 1 0
0.16051 350 350 1 1 0
0.160548 350 350 1 1 0
0.160587 350 350 1 1 0
0.160625 350 350 1 1 0
0.160662 350 350 1 1 0
0.1607 350 350 1 1 0
0.160737 350 350 1 1 0
0.160773 350 350 1 1 0
0.16081 350 350 1 1 0
0.160846 350 350 1 1 0
0.160881 350 350 1 1 0
0.160917 350 350 1 1 0
0.160952 350 350 1 1 0
0.160986 350 350 1 1 0
0.16102 350 350 1 1 0
0.161054 350 350 1 1 0
0.161088 350 350 1 1 0
0.161121 350 350 1 1 0
0.161154 350 350 1 1 0
0.161186 350 350 1 1 0
0.161218 350 350 1 1 0
0.16125 350 350 1 1 0
0.161281 350 350 1 1 0
0.161312 350 350 1 1 0
0.161343 350 350 1 1 0
0.161373 350 350 1 1 0
0.161403 350 350 1 1 0
0.161432 350 350 1 1 0
0.161461 350 350 1 1 0
0.16149 350 350 1 1 0
0.161518 350 350 1 1 0
0.161546 350 350 1 1 0
0.161574 350 350 1 1 0
0.161601 350 350 1 1 0
0.161627 350 350 1 1 0
0.161653 350 350 1 1 0
0.161679 350 350 1 1 0
0.161705 350 350 1 1 0
0.16173 350 350 1 1 0
0.161754 350 350 1 1 0
0.161779 350 350 1 1 0
0.161802 350 350 1 1 0
0.161826 350 350 1 1 0
0.161849 350 350 1 1 0
0.161871 350 350 1 1 0
0.161893 350 350 1 1 0
0.161915 350 350 1 1 0
0.161936 350 350 1 1 0
0.161957 350 350 1 1 0
0.161977 350 350 1 1 0
0.161997 350 350 1 1 0
0.162017 350 350 1 1 0
0.162036 350 350 1 1 0
0.162054 350 350 1 1 0
0.162072 350 350 1 1 0
0.16209 350 350 1 1 0
0.162107 350 350 1 1 0
0.162124 350 350 1 1 0
0.16214 350 350 1 1 0
0.162156 350 350 1 1 0
0.162171 350 350 1 1 0
0.162186 350 350 1 1 0
0.162201 350 350 1 1 0
0.162214 350 350 1 1 0
0.162228 350 350 1 1 0
0.162241 350 350 1 1 0
0.162253 350 350 1 1 0
0.162265 350 350 1 1 0
0.162277 350 350 1 1 0
0.162288 350 350 1 1 0
0.162298 350 350 1 1 0
0.162308 350 350 1 1 0
0.162317 350 350 1 1 0
0.162326 350 350 1 1 0
0.162335 350 350 1 1 0
0.162342 350 350 1 1 0
0.16235 350 350 1 1 0
0.162357 350 350 1 1 0
0.162363 350 350 1 1 0
0.162369 350 350 1 1 0
0.162374 350 350 1 1 0
0.162378 350 350 1 1 0
0.162383 350 350 1 1 0
0.162386 350 350 1 1 0
0.162389 350 350 1 1 0
0.162392 350 350 1 1 0
0.162394 350 350 1 1 0
0.162395 350 350 1 1 0
0.162396 350 350 1 1 0
0.162396 350 350 2 1 0
0.162396 350 350 2 1 0
0.162395 350 350 2 1 0
0.162393 350 350 2 1 0
0.162391 350 350 2 1 0
0.162389 350 350 2 1 0
0.162385 350 350 2 1 0
0.162382 350 350 2 1 0
0.162377 350 350 2 1 0
0.162372 350 350 2 1 0
0.162367 350 350 2 1 0
0.16236 350 350 2 1 0
0.162353 350 350 2 1 0
0.162346 350 350 2 1 0
0.162338 350 350 2 1 0
0.162329 350 350 2 1 0
0.16232 350 350 2 1 0
0.16231 350 350 2 1 0
0.162299 350 350 2 1 0
0.162288 350 350 2 1 0
0.162276 350 350 2 1 0
0.162263 350 350 2 1 0
0.16225 350 350 2 1 0
0.162236 350 350 2 1 0
0.162221 350 350 2 1 0
0.162206 350 350 2 1 0
0.16219 350 350 2 1 0
0.162173 350 350 2 1 0
0.162156 350 350 2 1 0
0.162138 350 350 2 1 0
0.162119 350 350 2 1 0
0.162099 350 350 2 1 0
0.162079 350 350 2 1 0
0.162058 350 350 2 1 0
0.162036 350 350 2 1 0
0.162014 350 350 2 1 0
0.161991 350 350 2 1 0
0.161967 350 350 2 1 0
0.161942 350 350 2 1 0
0.161917 350 350 2 1 0
0.161891 350 350 2 1 0
0.161864 350 350 2 1 0
0.161837 350 350 2 1 0
0.161808 350 350 2 1 0
0.161779 350 350 2 1 0
0.161749 350 350 2 1 0
0.161718 350 350 2 1 0
0.161687 350 350 2 1 0
0.161654 350 350 2 1 0
0.161621 350 350 2 1 0
0.161587 350 350 2 1 0
0.161552 350 350 2 1 0
0.161517 350 350 2 1 0
0.16148 350 350 2 1 0
0.161443 350 350 2 1 0
0.161405 350 350 2 1 0
0.161366 350 350 2 1 0
0.161326 350 350 2 1 0
0.161286 350 350 2 1 0
0.161244 350 350 2 1 0
0.161202 350 350 2 1 0
0.161158 350 350 2 1 0
0.161114 350 350 2 1 0
0.161069 350 350 2 1 0
0.161023 350 350 2 1 0
0.160976 350 350 2 1 0
0.160928 350 350 2 1 0
0.16088 350 350 2 1 0
0.16083 350 350 2 1 0
0.16078 350 350 2 1 0
0.160728 350 350 2 1 0
0.160676 350 350 2 1 0
0.160622 350 350 2 1 0
0.160568 350 350 2 1 0
0.160512 350 350 2 1 0
0.160456 350 350 2 1 0
0.160399 350 350 2 1 0
0.16034 350 350 2 1 0
0.160281 350 350 2 1 0
0.160221 350 350 2 1 0
0.160159 350 350 2 1 0
0.160097 350 350 2 1 0
0.160033 350 350 2 1 0
0.159969 350 350 2 1 0
0.159903 350 350 2 1 0
0.159837 350 350 2 1 0
0.159769 350 350 2 1 0
0.159701 350 350 2 1 0
0.159631 350 350 2 1 0
0.15956 350 350 2 1 0
0.159488 350 350 2 1 0
0.159415 350 350 2 1 0
0.159341 350 350 2 1 0
0.159265 350 350 2 1 0
0.159189 350 350 2 1 0
0.159111 350 350 2 1 0
0.159032 350 350 2 1 0
0.158952 350 350 2 1 0
0.158871 350 350 2 1 0
0.158789 350 350 2 1 0
0.158706 350 350 2 1 0
0.158621 350 350 2 1 0
0.158535 350 350 2 1 0
0.158448 350 350 2 1 0
0.15836 350 350 2 1 0
0.15827 350 350 2 1 0
0.158179 350 350 2 1 0
0.158087 350 350 2 1 0
0.157994 350 350 2 1 0
0.157899 350 350 2 1 0
0.157803 350 350 2 1 0
0.157706 350 350 2 1 0
0.157607 350 350 2 1 0
0.157508 350 350 2 1 0
0.157406 350 350 2 1 0
0.157304 350 350 2 1 0
0.1572 350 350 2 1 0
0.157095 350 350 2 1 0
0.156988 350 350 2 1 0
0.15688 350 350 2 1 0
0.156771 350 350 2 1 0
0.15666 350 350 2 1 0
0.156547 350 350 2 1 0
0.156434 350 350 2 1 0
0.156319 350 350 2 1 0
0.156202 350 350 2 1 0
0.156084 350 350 2 1 0
0.155964 350 350 2 1 0
0.155843 350 350 2 1 0
0.155721 350 350 2 1 0
0.155597 350 350 2 1 0
0.155471 350 350 2 1 0
0.155344 350 350 2 1 0
0.155215 350 350 2 1 0
0.155085 350 350 2 1 0
0.154953 350 350 2 1 0
0.154819 350 350 2 1 0
0.154684 350 350 2 1 0
0.154547 350 350 2 1 0
0.154409 350 350 2 1 0
0.154269 350 350 2 1 0
0.154127 350 350 2 1 0
0.153984 350 350 2 1 0
0.153839 350 350 2 1 0
0.153692 350 350 2 1 0
0.153543 350 350 2 1 0
0.153393 350 350 2 1 0
0.153241 350 350 2 1 0
0.153087 350 350 2 1 0
0.152932 350 350 2 1 0
0.152774 350 350 2 1 0
0.152615 350 350 2 1 0
0.152454 350 350 2 1 0
0.152291 350 350 2 1 0
0.152126 350 350 2 1 0
0.151959 350 350 2 1 0
0.151791 350 350 2 1 0
0.15162 350 350 2 1 0
0.151448 350 350 2 1 0
0.151273 350 350 2 1 0
0.151097 350 350 2 1 0
0.150918 350 350 2 1 0
0.150738 350 350 2 1 0
0.150555 350 350 2 1 0
0.150371 350 350 2 1 0
0.150184 350 350 2 1 0
0.149996 350 350 2 1 0
0.149805 350 350 2 1 0
0.149612 350 350 2 1 0
0.149417 350 350 2 1 0
0.14922 350 350 2 1 0
0.149021 350 350 2 1 0
0.148819 350 350 2 1 0
0.148615 350 350 2 1 0
0.148409 350 350 2 1 0
0.148201 350 350 2 1 0
0.147991 350 350 2 1 0
0.147778 350 350 2 1 0
0.147563 350 350 2 1 0
0.147345 350 350 2 1 0
0.147125 350 350 2 1 0
0.146903 350 350 2 1 0
0.146678 350 350 2 1 0
0.146451 350 350 2 1 0
0.146222 350 350 2 1 0
0.14599 350 350 2 1 0
0.145755 350 350 2 1 0
0.145518 350 350 2 1 0
0.145278 350 350 2 1 0
0.145036 350 350 2 1 0
0.144791 350 350 2 1 0
0.144544 350 350 2 1 0
0.144294 350 350 2 1 0
0.144041 350 350 2 1 0
0.143786 350 350 2 1 0
0.143528 350 350 2 1 0
0.143267 350 350 2 1 0
0.143003 350 350 2 1 0
0.142736 350 350 2 1 0
0.142467 350 350 2 1 0
0.142195 350 350 2 1 0
0.14192 350 350 2 1 0
0.141642 350 350 2 1 0
0.141361 350 350 2 1 0
0.141077 350 350 2 1 0
0.14079 350 350 2 1 0
0.1405 350 350 2 1 0
0.140207 350 350 2 1 0
0.139911 350 350 2 1 0
0.139612 350 350 2 1 0
0.13931 350 350 2 1 0
0.139004 350 350 2 1 0
0.138696 350 350 2 1 0
0.138384 350 350 2 1 0
0.138068 350 350 2 1 0
0.13775 350 350 2 1 0
0.137428 350 350 2 1 0
0.137103 350 350 2 1 0
0.136774 350 350 2 1 0
0.136442 350 350 2 1 0
0.136106 350 350 2 1 0
0.135767 350 350 2 1 0
0.135424 350 350 2 1 0
0.135078 350 350 2 1 0
0.134728 350 350 2 1 0
0.134375 350 350 2 1 0
0.134017 350 350 2 1 0
0.133656 350 350 2 1 0
0.133292 350 350 2 1 0
0.132923 350 350 2 1 0
0.132551 350 350 2 1 0
0.132174 350 350 2 1 0
0.131794 350 350 2 1 0
0.13141 350 350 2 1 0
0.131022 350 350 2 1 0
0.130629 350 350 2 1 0
0.130233 350 350 2 1 0
0.129833 350 350 2 1 0
0.129428 350 350 2 1 0
0.129019 350 350 2 1 0
0.128606 350 350 2 1 0
0.128188 350 350 2 1 0
0.127766 350 350 2 1 0
0.12734 350 350 2 1 0
0.126909 350 350 2 1 0
0.126474 350 350 2 1 0
0.126034 350 350 2 1 0
0.12559 350 350 2 1 0
0.125141 350 350 2 1 0
0.124687 350 350 2 1 0
0.124228 350 350 2 1 0
0.123765 350 350 2 1 0
0.123297 350 350 2 1 0
0.122824 350 350 2 1 0
0.122346 350 350 2 1 0
0.121862 350 350 2 1 0
0.121374 350 350 2 1 0
0.120881 350 350 2 1 0
0.120383 350 350 2 1 0
0.119879 350 350 2 1 0
0.11937 350 350 2 1 0
0.118855 350 350 2 1 0
0.118336 350 350 2 1 0
0.11781 350 350 2 1 0
0.117279 350 350 2 1 0
0.116743 350 350 2 1 0
0.116201 350 350 2 1 0
0.115653 350 350 2 1 0
0.115099 350 350 2 1 0
0.11454 350 350 2 1 0
0.113974 350 350 2 1 0
0.113403 350 350 2 1 0
0.112826 350 350 2 1 0
0.112242 350 350 2 1 0
0.111652 350 350 2 1 0
0.111056 350 350 2 1 0
0.110454 350 350 2 1 0
0.109845 350 350 2 1 0
0.109229 350 350 2 1 0
0.108607 350 350 2 1 0
0.107979 350 350 2 1 0
0.107343 350 350 2 1 0
0.106701 350 350 2 1 0
0.106052 350 350 2 1 0
0.105396 350 350 2 1 0
0.104733 350 350 2 1 0
0.104063 350 350 2 1 0
0.103386 350 350 2 1 0
0.102701 350 350 2 1 0
0.102009 350 350 2 1 0
0.101309 350 350 2 1 0
0.100602 350 350 2 1 0
0.0998872 350 350 2 1 0
0.0991646 350 350 2 1 0
0.0984342 350 350 2 1 0
0.0976958 350 350 2 1 0
0.0969494 350 350 2 1 0
0.0961949 350 350 2 1 0
0.0954321 350 350 2 1 0
0.0946609 350 350 2 1 0
0.0938813 350 350 2 1 0
0.0930932 350 350 2 1 0
0.0922964 350 350 2 1 0
0.0914908 350 350 2 1 0
0.0906764 350 350 2 1 0
0.089853 350 350 2 1 0
0.0890205 350 350 2 1 0
0.0881787 350 350 2 1 0
0.0873277 350 350 2 1 0
0.0864672 350 350 2 1 0
0.0855971 350 350 2 1 0
0.0847173 350 350 2 1 0
0.0838278 350 350 2 1 0
0.0829282 350 350 2 1 0
0.0820187 350 350 2 1 0
0.0810989 350 350 2 1 0
0.0801688 350 350 2 1 0
0.0792282 350 350 2 1 0
0.078277 350 350 2 1 0
0.0773151 350 350 2 1 0
0.0763423 350 350 2 1 0
0.0753585 350 350 2 1 0
0.0743635 350 350 2 1 0
0.0733572 350 350 2 1 0
0.0723395 350 350 2 1 0
0.0713101 350 350 2 1 0
0.0702689 350 350 2 1 0
0.0692159 350 350 2 1 0
0.0681507 350 350 2 1 0
0.0670733 350 350 2 1 0
0.0659834 350 350 2 1 0
0.064881 350 350 2 1 0
0.0637658 350 350 2 1 0
0.0626377 350 350 2 1 0
0.0614964 350 350 2 1 0
0.0603419 350 350 2 1 0
0.0591739 350 350 2 1 0
0.0579922 350 350 2 1 0
0.0567967 350 350 2 1 0
0.0555871 350 350 2 1 0
0.0543633 350 350 2 1 0
0.0531251 350 350 2 1 0
0.0518722 350 350 2 1 0
0.0506045 350 350 2 1 0
0.0493217 350 350 2 1 0
0.0480236 350 350 2 1 0
0.0467101 350 350 2 1 0
0.0453808 350 350 2 1 0
0.0440356 350 350 2 1 0
0.0426742 350 350 2 1 0
0.0412964 350 350 2 1 0
0.039902 350 350 2 1 0
0.0384907 350 350 2 1 0
0.0370622 350 350 2 1 0
0.0356164 350 350 2 1 0
0.0341529 350 350 2 1 0
0.0326716 350 350 2 1 0
0.031172 350 350 2 1 0
0.0296541 350 350 2 1 0
0.0281174 350 350 2 1 0
0.0265618 350 350 2 1 0
0.0249868 350 350 2 1 0
0.0233923 350 350 2 1 0
0.021778 350 350 2 1 0
0.0201435 350 350 2 1 0
0.0184885 350 350 2 1 0
0.0168127 350 350 2 1 0
0.0151158 350 350 2 1 0
0.0133975 350 350 2 1 0
0.0116574 350 350 2 1 0
0.00989518 350 350 2 1 0
0.00811054 350 350 2 1 0
0.0063031 350 350 2 1 0
0.0044725 350 350 2 1 0
0.00261838 350 350 2 1 0
0.000740354 350 350 2 1 0
-0.00116195 350 350 2 1 0
0.1 350 350 1 1 0
0.0999932 350 350 1 1 0
0.0999864 350 350 1 1 0
0.0999727 350 350 1 1 0
0.0999454 350 350 1 1 0
0.0998909 350 350 1 1 0
0.0998058 350 350 1 1 0
0.0997208 350 350 1 1 0
0.0996359 350 350 1 1 0
0.0995511 350 350 1 1 0
0.0994664 350 350 1 1 0
0.0993818 350 350 1 1 0
0.0992973 350 350 1 1 0
0.0992129 350 350 1 1 0
0.0991286 350 350 1 1 0
0.0990444 350 350 1 1 0
0.0989603 350 350 1 1 0
0.0988763 350 350 1 1 0
0.0987924 350 350 1 1 0
0.0987085 350 350 1 1 0
0.0986248 350 350 1 1 0
0.0985412 350 350 1 1 0
0.0984577 350 350 1 1 0
0.0983743 350 350 1 1 0
0.0982909 350 350 1 1 0
0.0982077 350 350 1 1 0
0.0981246 350 350 1 1 0
0.0980416 350 350 1 1 0
0.0979586 350 350 1 1 0
0.0978758 350 350 1 1 0
0.097793 350 350 1 1 0
0.0977104 350 350 1 1 0
0.0976278 350 350 1 1 0
0.0975454 350 350 1 1 0
0.097463 350 350 1 1 0
0.0973808 350 350 1 1 0
0.0972986 350 350 1 1 0
0.0972165 350 350 1 1 0
0.0971346 350 350 1 1 0
0.0970527 350 350 1 1 0
0.0969709 350 350 1 1 0
0.0968892 350 350 1 1 0
0.0968076 350 350 1 1 0
0.0967261 350 350 1 1 0
0.0966447 350 350 1 1 0
0.0965634 350 350 1 1 0
0.0964821 350 350 1 1 0
0.096401 350 350 1 1 0
0.09632 350 350 1 1 0
0.096239 350 350 1 1 0
0.0961582 350 350 1 1 0
0.0960774 350 350 1 1 0
0.0959967 350 350 1 1 0
0.0959161 350 350 1 1 0
0.0958357 350 350 1 1 0
0.0957553 350 350 1 1 0
0.095675 350 350 1 1 0
0.0955948 350 350 1 1 0
0.0955146 350 350 1 1 0
0.0954346 350 350 1 1 0
0.0953547 350 350 1 1 0
0.0952748 350 350 1 1 0
0.0951951 350 350 1 1 0
0.0951154 350 350 1 1 0
0.0950358 350 350 1 1 0
0.0949563 350 350 1 1 0
0.0948769 350 350 1 1 0
0.0947976 350 350 1 1 0
0.0947184 350 350 1 1 0
0.0946393 350 350 1 1 0
0.0945602 350 350 1 1 0
0.0944813 350 350 1 1 0
0.0944024 350 350 1 1 0
0.0943236 350 350 1 1 0
0.0942449 350 350 1 1 0
0.0941663 350 350 1 1 0
0.0940878 350 350 1 1 0
0.0940094 350 350 1 1 0
0.093931 350 350 1 1 0
0.0938527 350 350 1 1 0
0.0937746 350 350 1 1 0
0.0936965 350 350 1 1 0
0.0936185 350 350 1 1 0
0.0935406 350 350 1 1 0
0.0934627 350 350 1 1 0
0.093385 350 350 1 1 0
0.0933073 350 350 1 1 0
0.0932298 350 350 1 1 0
0.0931523 350 350 1 1 0
0.0930749 350 350 1 1 0
0.0929975 350 350 1 1 0
0.0929203 350 350 1 1 0
0.0928432 350 350 1 1 0
0.0927661 350 350 1 1 0
0.0926891 350 350 1 1 0
0.0926122 350 350 1 1 0
0.0925354 350 350 1 1 0
0.0924586 350 350 1 1 0
0.092382 350 350 1 1 0
0.0923054 350 350 1 1 0
0.0922289 350 350 1 1 0
0.0921525 350 350 1 1 0
0.0920762 350 350 1 1 0
0.0919999 350 350 1 1 0
0.0919237 350 350 1 1 0
0.0918477 350 350 1 1 0
0.0917716 350 350 1 1 0
0.0916957 350 350 1 1 0
0.0916199 350 350 1 1 0
0.0915441 350 350 1 1 0
0.0914684 350 350 1 1 0
0.0913928 350 350 1 1 0
0.0913173 350 350 1 1 0
0.0912418 350 350 1 1 0
0.0911665 350 350 1 1 0
0.0910912 350 350 1 1 0
0.091016 350 350 1 1 0
0.0909408 350 350 1 1 0
0.0908658 350 350 1 1 0
0.0907908 350 350 1 1 0
0.0907159 350 350 1 1 0
0.0906411 350 350 1 1 0
0.0905663 350 350 1 1 0
0.0904916 350 350 1 1 0
0.0904171 350 350 1 1 0
0.0903425 350 350 1 1 0
0.0902681 350 350 1 1 0
0.0901937 350 350 1 1 0
0.0901194 350 350 1 1 0
0.0900452 350 350 1 1 0
0.0899711 350 350 1 1 0
0.089897 350 350 1 1 0
0.089823 350 350 1 1 0
0.0897491 350 350 1 1 0
0.0896753 350 350 1 1 0
0.0896015 350 350 1 1 0
0.0895278 350 350 1 1 0
0.0894542 350 350 1 1 0
0.0893807 350 350 1 1 0
0.0893072 350 350 1 1 0
0.0892338 350 350 1 1 0
0.0891605 350 350 1 1 0
0.0890872 350 350 1 1 0
0.089014 350 350 1 1 0
0.0889409 350 350 1 1 0
0.0888679 350 350 1 1 0
0.0887949 350 350 1 1 0
0.0887221 350 350 1 1 0
0.0886492 350 350 1 1 0
0.0885765 350 350 1 1 0
0.0885038 350 350 1 1 0
0.0884312 350 350 1 1 0
0.0883587 350 350 1 1 0
0.0882862 350 350 1 1 0
0.0882138 350 350 1 1 0
0.0881415 350 350 1 1 0
0.0880692 350 350 1 1 0
0.087997 350 350 1 1 0
0.0879249 350 350 1 1 0
0.0878529 350 350 1 1 0
0.0877809 350 350 1 1 0
0.087709 350 350 1 1 0
0.0876372 350 350 1 1 0
0.0875654 350 350 1 1 0
0.0874937 350 350 1 1 0
0.0874221 350 350 1 1 0
0.0873505 350 350 1 1 0
0.087279 350 350 1 1 0
0.0872076 350 350 1 1 0
0.0871362 350 350 1 1 0
0.0870649 350 350 1 1 0
0.0869937 350 350 1 1 0
0.0869225 350 350 1 1 0
0.0868514 350 350 1 1 0
0.0867804 350 350 1 1 0
0.0867094 350 350 1 1 0
0.0866385 350 350 1 1 0
0.0865677 350 350 1 1 0
0.0864969 350 350 1 1 0
0.0864262 350 350 1 1 0
0.0863556 350 350 1 1 0
0.086285 350 350 1 1 0
0.0862145 350 350 1 1 0
0.086144 350 350 1 1 0
0.0860736 350 350 1 1 0
0.0860033 350 350 1 1 0
0.0859331 350 350 1 1 0
0.0858629 350 350 1 1 0
0.0857928 350 350 1 1 0
0.0857227 350 350 1 1 0
0.0856527 350 350 1 1 0
0.0855828 350 350 1 1 0
0.0855129 350 350 1 1 0
0.0854431 350 350 1 1 0
0.0853733 350 350 1 1 0
0.0853036 350 350 1 1 0
0.085234 350 350 1 1 0
0.0851645 350 350 1 1 0
0.085095 350 350 1 1 0
0.0850255 350 350 1 1 0
0.0849561 350 350 1 1 0
0.0848868 350 350 1 1 0
0.0848176 350 350 1 1 0
0.0847484 350 350 1 1 0
0.0846792 350 350 1 1 0
0.0846102 350 350 1 1 0
0.0845412 350 350 1 1 0
0.0844722 350 350 1 1 0
0.0844033 350 350 1 1 0
0.0843345 350 350 1 1 0
0.0842657 350 350 1 1 0
0.084197 350 350 1 1 0
0.0841283 350 350 1 1 0
0.0840597 350 350 1 1 0
0.0839912 350 350 1 1 0
0.0839227 350 350 1 1 0
0.0838543 350 350 1 1 0
0.0837859 350 350 1 1 0
0.0837176 350 350 1 1 0
0.0836493 350 350 1 1 0
0.0835812 350 350 1 1 0
0.083513 350 350 1 1 0
0.0834449 350 350 1 1 0
0.0833769 350 350 1 1 0
0.083309 350 350 1 1 0
0.0832411 350 350 1 1 0
