0.131165 0.595899 0.595899 1 1 0
0.131169 0.59591 0.59591 1 1 0
0.131173 0.595921 0.595921 1 1 0
0.131177 0.595932 0.595932 1 1 0
0.131181 0.595943 0.595943 1 1 0
0.131186 0.595953 0.595953 1 1 0
0.13119 0.595964 0.595964 1 1 0
0.131194 0.595975 0.595975 1 1 0
0.131198 0.595986 0.595986 1 1 0
0.131202 0.595997 0.595997 1 1 0
0.131206 0.596008 0.596008 1 1 0
0.13121 0.596019 0.596019 1 1 0
0.131215 0.59603 0.59603 1 1 0
0.131219 0.596041 0.596041 1 1 0
0.131223 0.596052 0.596052 1 1 0
0.131227 0.596063 0.596063 1 1 0
0.131231 0.596074 0.596074 1 1 0
0.131235 0.596085 0.596085 1 1 0
0.131239 0.596096 0.596096 1 1 0
0.131243 0.596107 0.596107 1 1 0
0.131248 0.596118 0.596118 1 1 0
0.131252 0.596129 0.596129 1 1 0
0.131256 0.59614 0.59614 1 1 0
0.13126 0.596151 0.596151 1 1 0
0.131264 0.596162 0.596162 1 1 0
0.131268 0.596173 0.596173 1 1 0
0.131272 0.596184 0.596184 1 1 0
0.131277 0.596195 0.596195 1 1 0
0.131281 0.596206 0.596206 1 1 0
0.131285 0.596216 0.596216 1 1 0
0.131289 0.596227 0.596227 1 1 0
0.131293 0.596238 0.596238 1 1 0
0.131297 0.596249 0.596249 1 1 0
0.131301 0.59626 0.59626 1 1 0
0.131306 0.596271 0.596271 1 1 0
0.13131 0.596282 0.596282 1 1 0
0.131314 0.596293 0.596293 1 1 0
0.131318 0.596304 0.596304 1 1 0
0.131322 0.596315 0.596315 1 1 0
0.131326 0.596326 0.596326 1 1 0
0.13133 0.596337 0.596337 1 1 0
0.131335 0.596348 0.596348 1 1 0
0.131339 0.596359 0.596359 1 1 0
0.131343 0.59637 0.59637 1 1 0
0.131347 0.596381 0.596381 1 1 0
0.131351 0.596392 0.596392 1 1 0
0.131355 0.596403 0.596403 1 1 0
0.131359 0.596414 0.596414 1 1 0
0.131364 0.596425 0.596425 1 1 0
0.131368 0.596436 0.596436 1 1 0
0.131372 0.596447 0.596447 1 1 0
0.131376 0.596458 0.596458 1 1 0
0.13138 0.596469 0.596469 1 1 0
0.131384 0.59648 0.59648 1 1 0
0.131389 0.59649 0.59649 1 1 0
0.131393 0.596501 0.596501 1 1 0
0.131397 0.596512 0.596512 1 1 0
0.131401 0.596523 0.596523 1 1 0
0.131405 0.596534 0.596534 1 1 0
0.131409 0.596545 0.596545 1 1 0
0.131414 0.596556 0.596556 1 1 0
0.131418 0.596567 0.596567 1 1 0
0.131422 0.596578 0.596578 1 1 0
0.131426 0.596589 0.596589 1 1 0
0.13143 0.5966 0.5966 1 1 0
0.131434 0.596611 0.596611 1 1 0
0.131438 0.596622 0.596622 1 1 0
0.131443 0.596633 0.596633 1 1 0
0.131447 0.596644 0.596644 1 1 0
0.131451 0.596655 0.596655 1 1 0
0.131455 0.596666 0.596666 1 1 0
0.131459 0.596677 0.596677 1 1 0
0.131463 0.596688 0.596688 1 1 0
0.131468 0.596699 0.596699 1 1 0
0.131472 0.59671 0.59671 1 1 0
0.131476 0.596721 0.596721 1 1 0
0.13148 0.596732 0.596732 1 1 0
0.131484 0.596743 0.596743 1 1 0
0.131488 0.596753 0.596753 1 1 0
0.131493 0.596764 0.596764 1 1 0
0.131497 0.596775 0.596775 1 1 0
0.131501 0.596786 0.596786 1 1 0
0.131505 0.596797 0.596797 1 1 0
0.131509 0.596808 0.596808 1 1 0
0.131513 0.596819 0.596819 1 1 0
0.131518 0.59683 0.59683 1 1 0
0.131522 0.596841 0.596841 1 1 0
0.131526 0.596852 0.596852 1 1 0
0.13153 0.596863 0.596863 1 1 0
0.131534 0.596874 0.596874 1 1 0
0.131539 0.596885 0.596885 1 1 0
0.131543 0.596896 0.596896 1 1 0
0.131547 0.596907 0.596907 1 1 0
0.131551 0.596918 0.596918 1 1 0
0.131555 0.596929 0.596929 1 1 0
0.131559 0.59694 0.59694 1 1 0
0.131564 0.596951 0.596951 1 1 0
0.131568 0.596962 0.596962 1 1 0
0.131572 0.596973 0.596973 1 1 0
0.131576 0.596984 0.596984 1 1 0
0.13158 0.596995 0.596995 1 1 0
0.131584 0.597006 0.597006 1 1 0
0.131589 0.597016 0.597016 1 1 0
0.131593 0.597027 0.597027 1 1 0
0.131597 0.597038 0.597038 1 1 0
0.131601 0.597049 0.597049 1 1 0
0.131605 0.59706 0.59706 1 1 0
0.13161 0.597071 0.597071 1 1 0
0.131614 0.597082 0.597082 1 1 0
0.131618 0.597093 0.597093 1 1 0
0.131622 0.597104 0.597104 1 1 0
0.131626 0.597115 0.597115 1 1 0
0.13163 0.597126 0.597126 1 1 0
0.131635 0.597137 0.597137 1 1 0
0.131639 0.597148 0.597148 1 1 0
0.131643 0.597159 0.597159 1 1 0
0.131647 0.59717 0.59717 1 1 0
0.131651 0.597181 0.597181 1 1 0
0.131656 0.597192 0.597192 1 1 0
0.13166 0.597203 0.597203 1 1 0
0.131664 0.597214 0.597214 1 1 0
0.131668 0.597225 0.597225 1 1 0
0.131672 0.597236 0.597236 1 1 0
0.131677 0.597247 0.597247 1 1 0
0.131681 0.597258 0.597258 1 1 0
0.131685 0.597269 0.597269 1 1 0
0.131689 0.59728 0.59728 1 1 0
0.131693 0.59729 0.59729 1 1 0
0.131698 0.597301 0.597301 1 1 0
0.131702 0.597312 0.597312 1 1 0
0.131706 0.597323 0.597323 1 1 0
0.13171 0.597334 0.597334 1 1 0
0.131714 0.597345 0.597345 1 1 0
0.131719 0.597356 0.597356 1 1 0
0.131723 0.597367 0.597367 1 1 0
0.131727 0.597378 0.597378 1 1 0
0.131731 0.597389 0.597389 1 1 0
0.131735 0.5974 0.5974 1 1 0
0.13174 0.597411 0.597411 1 1 0
0.131744 0.597422 0.597422 1 1 0
0.131748 0.597433 0.597433 1 1 0
0.131752 0.597444 0.597444 1 1 0
0.131756 0.597455 0.597455 1 1 0
0.131761 0.597466 0.597466 1 1 0
0.131765 0.597477 0.597477 1 1 0
0.131769 0.597488 0.597488 1 1 0
0.131773 0.597499 0.597499 1 1 0
0.131777 0.59751 0.59751 1 1 0
0.131782 0.597521 0.597521 1 1 0
0.131786 0.597532 0.597532 1 1 0
0.13179 0.597543 0.597543 1 1 0
0.131794 0.597553 0.597553 1 1 0
0.131798 0.597564 0.597564 1 1 0
0.131803 0.597575 0.597575 1 1 0
0.131807 0.597586 0.597586 1 1 0
0.131811 0.597597 0.597597 1 1 0
0.131815 0.597608 0.597608 1 1 0
0.131819 0.597619 0.597619 1 1 0
0.131824 0.59763 0.59763 1 1 0
0.131828 0.597641 0.597641 1 1 0
0.131832 0.597652 0.597652 1 1 0
0.131836 0.597663 0.597663 1 1 0
0.131841 0.597674 0.597674 1 1 0
0.131845 0.597685 0.597685 1 1 0
0.131849 0.597696 0.597696 1 1 0
0.131853 0.597707 0.597707 1 1 0
0.131857 0.597718 0.597718 1 1 0
0.131862 0.597729 0.597729 1 1 0
0.131866 0.59774 0.59774 1 1 0
0.13187 0.597751 0.597751 1 1 0
0.131874 0.597762 0.597762 1 1 0
0.131878 0.597773 0.597773 1 1 0
0.131883 0.597784 0.597784 1 1 0
0.131887 0.597795 0.597795 1 1 0
0.131891 0.597806 0.597806 1 1 0
0.131895 0.597816 0.597816 1 1 0
0.1319 0.597827 0.597827 1 1 0
0.131904 0.597838 0.597838 1 1 0
0.131908 0.597849 0.597849 1 1 0
0.131912 0.59786 0.59786 1 1 0
0.131916 0.597871 0.597871 1 1 0
0.131921 0.597882 0.597882 1 1 0
0.131925 0.597893 0.597893 1 1 0
0.131929 0.597904 0.597904 1 1 0
0.131933 0.597915 0.597915 1 1 0
0.131938 0.597926 0.597926 1 1 0
0.131942 0.597937 0.597937 1 1 0
0.131946 0.597948 0.597948 1 1 0
0.13195 0.597959 0.597959 1 1 0
0.131955 0.59797 0.59797 1 1 0
0.131959 0.597981 0.597981 1 1 0
0.131963 0.597992 0.597992 1 1 0
0.131967 0.598003 0.598003 1 1 0
0.131971 0.598014 0.598014 1 1 0
0.131976 0.598025 0.598025 1 1 0
0.13198 0.598036 0.598036 1 1 0
0.131984 0.598047 0.598047 1 1 0
0.131988 0.598058 0.598058 1 1 0
0.131993 0.598069 0.598069 1 1 0
0.131997 0.598079 0.598079 1 1 0
0.132001 0.59809 0.59809 1 1 0
0.132005 0.598101 0.598101 1 1 0
0.13201 0.598112 0.598112 1 1 0
0.132014 0.598123 0.598123 1 1 0
0.132018 0.598134 0.598134 1 1 0
0.132022 0.598145 0.598145 1 1 0
0.132027 0.598156 0.598156 1 1 0
0.132031 0.598167 0.598167 1 1 0
0.132035 0.598178 0.598178 1 1 0
0.132039 0.598189 0.598189 1 1 0
0.132043 0.5982 0.5982 1 1 0
0.132048 0.598211 0.598211 1 1 0
0.132052 0.598222 0.598222 1 1 0
0.132056 0.598233 0.598233 1 1 0
0.13206 0.598244 0.598244 1 1 0
0.132065 0.598255 0.598255 1 1 0
0.132069 0.598266 0.598266 1 1 0
0.132073 0.598277 0.598277 1 1 0
0.132077 0.598288 0.598288 1 1 0
0.132082 0.598299 0.598299 1 1 0
0.132086 0.59831 0.59831 1 1 0
0.13209 0.598321 0.598321 1 1 0
0.132094 0.598332 0.598332 1 1 0
0.132099 0.598343 0.598343 1 1 0
0.132103 0.598353 0.598353 1 1 0
0.132107 0.598364 0.598364 1 1 0
0.132111 0.598375 0.598375 1 1 0
0.132116 0.598386 0.598386 1 1 0
0.13212 0.598397 0.598397 1 1 0
0.132124 0.598408 0.598408 1 1 0
0.132128 0.598419 0.598419 1 1 0
0.132133 0.59843 0.59843 1 1 0
0.132137 0.598441 0.598441 1 1 0
0.132141 0.598452 0.598452 1 1 0
0.132145 0.598463 0.598463 1 1 0
0.13215 0.598474 0.598474 1 1 0
0.132154 0.598485 0.598485 1 1 0
0.132158 0.598496 0.598496 1 1 0
0.132162 0.598507 0.598507 1 1 0
0.132167 0.598518 0.598518 1 1 0
0.132171 0.598529 0.598529 1 1 0
0.132175 0.59854 0.59854 1 1 0
0.13218 0.598551 0.598551 1 1 0
0.132184 0.598562 0.598562 1 1 0
0.132188 0.598573 0.598573 1 1 0
0.132192 0.598584 0.598584 1 1 0
0.132197 0.598595 0.598595 1 1 0
0.132201 0.598606 0.598606 1 1 0
0.132205 0.598616 0.598616 1 1 0
0.132209 0.598627 0.598627 1 1 0
0.132214 0.598638 0.598638 1 1 0
0.132218 0.598649 0.598649 1 1 0
0.132222 0.59866 0.59866 1 1 0
0.132226 0.598671 0.598671 1 1 0
0.132231 0.598682 0.598682 1 1 0
0.132235 0.598693 0.598693 1 1 0
0.132239 0.598704 0.598704 1 1 0
0.132244 0.598715 0.598715 1 1 0
0.132248 0.598726 0.598726 1 1 0
0.132252 0.598737 0.598737 1 1 0
0.132256 0.598748 0.598748 1 1 0
0.132261 0.598759 0.598759 1 1 0
0.132265 0.59877 0.59877 1 1 0
0.132269 0.598781 0.598781 1 1 0
0.132273 0.598792 0.598792 1 1 0
0.132278 0.598803 0.598803 1 1 0
0.132282 0.598814 0.598814 1 1 0
0.132286 0.598825 0.598825 1 1 0
0.132291 0.598836 0.598836 1 1 0
0.132295 0.598847 0.598847 1 1 0
0.132299 0.598858 0.598858 1 1 0
0.132303 0.598869 0.598869 1 1 0
0.132308 0.598879 0.598879 1 1 0
0.132312 0.59889 0.59889 1 1 0
0.132316 0.598901 0.598901 1 1 0
0.13232 0.598912 0.598912 1 1 0
0.132325 0.598923 0.598923 1 1 0
0.132329 0.598934 0.598934 1 1 0
0.132333 0.598945 0.598945 1 1 0
0.132338 0.598956 0.598956 1 1 0
0.132342 0.598967 0.598967 1 1 0
0.132346 0.598978 0.598978 1 1 0
0.13235 0.598989 0.598989 1 1 0
0.132355 0.599 0.599 1 1 0
0.132359 0.599011 0.599011 1 1 0
0.132363 0.599022 0.599022 1 1 0
0.132368 0.599033 0.599033 1 1 0
0.132372 0.599044 0.599044 1 1 0
0.132376 0.599055 0.599055 1 1 0
0.13238 0.599066 0.599066 1 1 0
0.132385 0.599077 0.599077 1 1 0
0.132389 0.599088 0.599088 1 1 0
0.132393 0.599099 0.599099 1 1 0
0.132398 0.59911 0.59911 1 1 0
0.132402 0.599121 0.599121 1 1 0
0.132406 0.599132 0.599132 1 1 0
0.13241 0.599142 0.599142 1 1 0
0.132415 0.599153 0.599153 1 1 0
0.132419 0.599164 0.599164 1 1 0
0.132423 0.599175 0.599175 1 1 0
0.132428 0.599186 0.599186 1 1 0
0.132432 0.599197 0.599197 1 1 0
0.132436 0.599208 0.599208 1 1 0
0.132441 0.599219 0.599219 1 1 0
0.132445 0.59923 0.59923 1 1 0
0.132449 0.599241 0.599241 1 1 0
0.132453 0.599252 0.599252 1 1 0
0.132458 0.599263 0.599263 1 1 0
0.132462 0.599274 0.599274 1 1 0
0.132466 0.599285 0.599285 1 1 0
0.132471 0.599296 0.599296 1 1 0
0.132475 0.599307 0.599307 1 1 0
0.132479 0.599318 0.599318 1 1 0
0.132484 0.599329 0.599329 1 1 0
0.132488 0.59934 0.59934 1 1 0
0.132492 0.599351 0.599351 1 1 0
0.132496 0.599362 0.599362 1 1 0
0.132501 0.599373 0.599373 1 1 0
0.132505 0.599384 0.599384 1 1 0
0.132509 0.599395 0.599395 1 1 0
0.132514 0.599405 0.599405 1 1 0
0.132518 0.599416 0.599416 1 1 0
0.132522 0.599427 0.599427 1 1 0
0.132527 0.599438 0.599438 1 1 0
0.132531 0.599449 0.599449 1 1 0
0.132535 0.59946 0.59946 1 1 0
0.132539 0.599471 0.599471 1 1 0
0.132544 0.599482 0.599482 1 1 0
0.132548 0.599493 0.599493 1 1 0
0.132552 0.599504 0.599504 1 1 0
0.132557 0.599515 0.599515 1 1 0
0.132561 0.599526 0.599526 1 1 0
0.132565 0.599537 0.599537 1 1 0
0.13257 0.599548 0.599548 1 1 0
0.132574 0.599559 0.599559 1 1 0
0.132578 0.59957 0.59957 1 1 0
0.132583 0.599581 0.599581 1 1 0
0.132587 0.599592 0.599592 1 1 0
0.132591 0.599603 0.599603 1 1 0
0.132596 0.599614 0.599614 1 1 0
0.1326 0.599625 0.599625 1 1 0
0.132604 0.599636 0.599636 1 1 0
0.132609 0.599647 0.599647 1 1 0
0.132613 0.599658 0.599658 1 1 0
0.132617 0.599668 0.599668 1 1 0
0.132621 0.599679 0.599679 1 1 0
0.132626 0.59969 0.59969 1 1 0
0.13263 0.599701 0.599701 1 1 0
0.132634 0.599712 0.599712 1 1 0
0.132639 0.599723 0.599723 1 1 0
0.132643 0.599734 0.599734 1 1 0
0.132647 0.599745 0.599745 1 1 0
0.132652 0.599756 0.599756 1 1 0
0.132656 0.599767 0.599767 1 1 0
0.13266 0.599778 0.599778 1 1 0
0.132665 0.599789 0.599789 1 1 0
0.132669 0.5998 0.5998 1 1 0
0.132673 0.599811 0.599811 1 1 0
0.132678 0.599822 0.599822 1 1 0
0.132682 0.599833 0.599833 1 1 0
0.132686 0.599844 0.599844 1 1 0
0.132691 0.599855 0.599855 1 1 0
0.132695 0.599866 0.599866 1 1 0
0.132699 0.599877 0.599877 1 1 0
0.132704 0.599888 0.599888 1 1 0
0.132708 0.599899 0.599899 1 1 0
0.132712 0.59991 0.59991 1 1 0
0.132717 0.599921 0.599921 1 1 0
0.132721 0.599932 0.599932 1 1 0
0.132725 0.599942 0.599942 1 1 0
0.13273 0.599953 0.599953 1 1 0
0.132734 0.599964 0.599964 1 1 0
0.132738 0.599975 0.599975 1 1 0
0.132743 0.599986 0.599986 1 1 0
0.132747 0.599997 0.599997 1 1 0
0.132751 0.600008 0.600008 1 1 0
0.132756 0.600019 0.600019 1 1 0
0.13276 0.60003 0.60003 1 1 0
0.132764 0.600041 0.600041 1 1 0
0.132769 0.600052 0.600052 1 1 0
0.132773 0.600063 0.600063 1 1 0
0.132777 0.600074 0.600074 1 1 0
0.132782 0.600085 0.600085 1 1 0
0.132786 0.600096 0.600096 1 1 0
0.13279 0.600107 0.600107 1 1 0
0.132795 0.600118 0.600118 1 1 0
0.132799 0.600129 0.600129 1 1 0
0.132804 0.60014 0.60014 1 1 0
0.132808 0.600151 0.600151 1 1 0
0.132812 0.600162 0.600162 1 1 0
0.132817 0.600173 0.600173 1 1 0
0.132821 0.600184 0.600184 1 1 0
0.132825 0.600195 0.600195 1 1 0
0.13283 0.600205 0.600205 1 1 0
0.132834 0.600216 0.600216 1 1 0
0.132838 0.600227 0.600227 1 1 0
0.132843 0.600238 0.600238 1 1 0
0.132847 0.600249 0.600249 1 1 0
0.132851 0.60026 0.60026 1 1 0
0.132856 0.600271 0.600271 1 1 0
0.13286 0.600282 0.600282 1 1 0
0.132864 0.600293 0.600293 1 1 0
0.132869 0.600304 0.600304 1 1 0
0.132873 0.600315 0.600315 1 1 0
0.132877 0.600326 0.600326 1 1 0
0.132882 0.600337 0.600337 1 1 0
0.132886 0.600348 0.600348 1 1 0
0.132891 0.600359 0.600359 1 1 0
0.132895 0.60037 0.60037 1 1 0
0.132899 0.600381 0.600381 1 1 0
0.132904 0.600392 0.600392 1 1 0
0.132908 0.600403 0.600403 1 1 0
0.132912 0.600414 0.600414 1 1 0
0.132917 0.600425 0.600425 1 1 0
0.132921 0.600436 0.600436 1 1 0
0.132925 0.600447 0.600447 1 1 0
0.13293 0.600458 0.600458 1 1 0
0.132934 0.600468 0.600468 1 1 0
0.132939 0.600479 0.600479 1 1 0
0.132943 0.60049 0.60049 1 1 0
0.132947 0.600501 0.600501 1 1 0
0.132952 0.600512 0.600512 1 1 0
0.132956 0.600523 0.600523 1 1 0
0.13296 0.600534 0.600534 1 1 0
0.132965 0.600545 0.600545 1 1 0
0.132969 0.600556 0.600556 1 1 0
0.132973 0.600567 0.600567 1 1 0
0.132978 0.600578 0.600578 1 1 0
0.132982 0.600589 0.600589 1 1 0
0.132987 0.6006 0.6006 1 1 0
0.132991 0.600611 0.600611 1 1 0
0.132995 0.600622 0.600622 1 1 0
0.133 0.600633 0.600633 1 1 0
0.133004 0.600644 0.600644 1 1 0
0.133008 0.600655 0.600655 1 1 0
0.133013 0.600666 0.600666 1 1 0
0.133017 0.600677 0.600677 1 1 0
0.133022 0.600688 0.600688 1 1 0
0.133026 0.600699 0.600699 1 1 0
0.13303 0.60071 0.60071 1 1 0
0.133035 0.600721 0.600721 1 1 0
0.133039 0.600731 0.600731 1 1 0
0.133043 0.600742 0.600742 1 1 0
0.133048 0.600753 0.600753 1 1 0
0.133052 0.600764 0.600764 1 1 0
0.133057 0.600775 0.600775 1 1 0
0.133061 0.600786 0.600786 1 1 0
0.133065 0.600797 0.600797 1 1 0
0.13307 0.600808 0.600808 1 1 0
0.133074 0.600819 0.600819 1 1 0
0.133079 0.60083 0.60083 1 1 0
0.133083 0.600841 0.600841 1 1 0
0.133087 0.600852 0.600852 1 1 0
0.133092 0.600863 0.600863 1 1 0
0.133096 0.600874 0.600874 1 1 0
0.1331 0.600885 0.600885 1 1 0
0.133105 0.600896 0.600896 1 1 0
0.133109 0.600907 0.600907 1 1 0
0.133114 0.600918 0.600918 1 1 0
0.133118 0.600929 0.600929 1 1 0
0.133122 0.60094 0.60094 1 1 0
0.133127 0.600951 0.600951 1 1 0
0.133131 0.600962 0.600962 1 1 0
0.133136 0.600973 0.600973 1 1 0
0.13314 0.600984 0.600984 1 1 0
0.133144 0.600994 0.600994 1 1 0
0.133149 0.601005 0.601005 1 1 0
0.133153 0.601016 0.601016 1 1 0
0.133158 0.601027 0.601027 1 1 0
0.133162 0.601038 0.601038 1 1 0
0.133166 0.601049 0.601049 1 1 0
0.133171 0.60106 0.60106 1 1 0
0.133175 0.601071 0.601071 1 1 0
0.13318 0.601082 0.601082 1 1 0
0.133184 0.601093 0.601093 1 1 0
0.133188 0.601104 0.601104 1 1 0
0.133193 0.601115 0.601115 1 1 0
0.133197 0.601126 0.601126 1 1 0
0.133202 0.601137 0.601137 1 1 0
0.133206 0.601148 0.601148 1 1 0
0.13321 0.601159 0.601159 1 1 0
0.133215 0.60117 0.60117 1 1 0
0.133219 0.601181 0.601181 1 1 0
0.133224 0.601192 0.601192 1 1 0
0.133228 0.601203 0.601203 1 1 0
0.133232 0.601214 0.601214 1 1 0
0.133237 0.601225 0.601225 1 1 0
0.133241 0.601236 0.601236 1 1 0
0.133246 0.601247 0.601247 1 1 0
0.13325 0.601257 0.601257 1 1 0
0.133254 0.601268 0.601268 1 1 0
0.133259 0.601279 0.601279 1 1 0
0.133263 0.60129 0.60129 1 1 0
0.133268 0.601301 0.601301 1 1 0
0.133272 0.601312 0.601312 1 1 0
0.133277 0.601323 0.601323 1 1 0
0.133281 0.601334 0.601334 1 1 0
0.133285 0.601345 0.601345 1 1 0
0.13329 0.601356 0.601356 1 1 0
0.133294 0.601367 0.601367 1 1 0
0.133299 0.601378 0.601378 1 1 0
0.133303 0.601389 0.601389 1 1 0
0.133307 0.6014 0.6014 1 1 0
0.133312 0.601411 0.601411 1 1 0
0.133316 0.601422 0.601422 1 1 0
0.133321 0.601433 0.601433 1 1 0
0.133325 0.601444 0.601444 1 1 0
0.13333 0.601455 0.601455 1 1 0
0.133334 0.601466 0.601466 1 1 0
0.133338 0.601477 0.601477 1 1 0
0.133343 0.601488 0.601488 1 1 0
0.133347 0.601499 0.601499 1 1 0
0.133352 0.60151 0.60151 1 1 0
0.133356 0.60152 0.60152 1 1 0
0.13336 0.601531 0.601531 1 1 0
0.133365 0.601542 0.601542 1 1 0
0.133369 0.601553 0.601553 1 1 0
0.133374 0.601564 0.601564 1 1 0
0.133378 0.601575 0.601575 1 1 0
0.133383 0.601586 0.601586 1 1 0
0.133387 0.601597 0.601597 1 1 0
0.133391 0.601608 0.601608 1 1 0
0.133396 0.601619 0.601619 1 1 0
0.1334 0.60163 0.60163 1 1 0
0.133405 0.601641 0.601641 1 1 0
0.133409 0.601652 0.601652 1 1 0
0.133414 0.601663 0.601663 1 1 0
0.133418 0.601674 0.601674 1 1 0
0.133422 0.601685 0.601685 1 1 0
0.133427 0.601696 0.601696 1 1 0
0.133431 0.601707 0.601707 1 1 0
0.133436 0.601718 0.601718 1 1 0
0.13344 0.601729 0.601729 1 1 0
0.133445 0.60174 0.60174 1 1 0
0.133449 0.601751 0.601751 1 1 0
0.133454 0.601762 0.601762 1 1 0
0.133458 0.601773 0.601773 1 1 0
0.133462 0.601783 0.601783 1 1 0
0.133467 0.601794 0.601794 1 1 0
0.133471 0.601805 0.601805 1 1 0
0.133476 0.601816 0.601816 1 1 0
0.13348 0.601827 0.601827 1 1 0
0.133485 0.601838 0.601838 1 1 0
0.133489 0.601849 0.601849 1 1 0
0.133494 0.60186 0.60186 1 1 0
0.133498 0.601871 0.601871 1 1 0
0.133502 0.601882 0.601882 1 1 0
0.133507 0.601893 0.601893 1 1 0
0.133511 0.601904 0.601904 1 1 0
0.133516 0.601915 0.601915 1 1 0
0.13352 0.601926 0.601926 1 1 0
0.133525 0.601937 0.601937 1 1 0
0.133529 0.601948 0.601948 1 1 0
0.133534 0.601959 0.601959 1 1 0
0.133538 0.60197 0.60197 1 1 0
0.133542 0.601981 0.601981 1 1 0
0.133547 0.601992 0.601992 1 1 0
0.133551 0.602003 0.602003 1 1 0
0.133556 0.602014 0.602014 1 1 0
0.13356 0.602025 0.602025 1 1 0
0.133565 0.602036 0.602036 1 1 0
0.133569 0.602046 0.602046 1 1 0
0.133574 0.602057 0.602057 1 1 0
0.133578 0.602068 0.602068 1 1 0
0.133583 0.602079 0.602079 1 1 0
0.133587 0.60209 0.60209 1 1 0
0.133591 0.602101 0.602101 1 1 0
0.133596 0.602112 0.602112 1 1 0
0.1336 0.602123 0.602123 1 1 0
0.133605 0.602134 0.602134 1 1 0
0.133609 0.602145 0.602145 1 1 0
0.133614 0.602156 0.602156 1 1 0
0.133618 0.602167 0.602167 1 1 0
0.133623 0.602178 0.602178 1 1 0
0.133627 0.602189 0.602189 1 1 0
0.133632 0.6022 0.6022 1 1 0
0.133636 0.602211 0.602211 1 1 0
0.133641 0.602222 0.602222 1 1 0
0.133645 0.602233 0.602233 1 1 0
0.133649 0.602244 0.602244 1 1 0
0.133654 0.602255 0.602255 1 1 0
0.133658 0.602266 0.602266 1 1 0
0.133663 0.602277 0.602277 1 1 0
0.133667 0.602288 0.602288 1 1 0
0.133672 0.602299 0.602299 1 1 0
0.133676 0.602309 0.602309 1 1 0
0.133681 0.60232 0.60232 1 1 0
0.133685 0.602331 0.602331 1 1 0
0.13369 0.602342 0.602342 1 1 0
0.133694 0.602353 0.602353 1 1 0
0.133699 0.602364 0.602364 1 1 0
0.133703 0.602375 0.602375 1 1 0
0.133708 0.602386 0.602386 1 1 0
0.133712 0.602397 0.602397 1 1 0
0.133717 0.602408 0.602408 1 1 0
0.133721 0.602419 0.602419 1 1 0
0.133725 0.60243 0.60243 1 1 0
0.13373 0.602441 0.602441 1 1 0
0.133734 0.602452 0.602452 1 1 0
0.133739 0.602463 0.602463 1 1 0
0.133743 0.602474 0.602474 1 1 0
0.133748 0.602485 0.602485 1 1 0
0.133752 0.602496 0.602496 1 1 0
0.133757 0.602507 0.602507 1 1 0
0.133761 0.602518 0.602518 1 1 0
0.133766 0.602529 0.602529 1 1 0
0.13377 0.60254 0.60254 1 1 0
0.133775 0.602551 0.602551 1 1 0
0.133779 0.602561 0.602561 1 1 0
0.133784 0.602572 0.602572 1 1 0
0.133788 0.602583 0.602583 1 1 0
0.133793 0.602594 0.602594 1 1 0
0.133797 0.602605 0.602605 1 1 0
0.133802 0.602616 0.602616 1 1 0
0.133806 0.602627 0.602627 1 1 0
0.133811 0.602638 0.602638 1 1 0
0.133815 0.602649 0.602649 1 1 0
0.13382 0.60266 0.60266 1 1 0
0.133824 0.602671 0.602671 1 1 0
0.133829 0.602682 0.602682 1 1 0
0.133833 0.602693 0.602693 1 1 0
0.133838 0.602704 0.602704 1 1 0
0.133842 0.602715 0.602715 1 1 0
0.133847 0.602726 0.602726 1 1 0
0.133851 0.602737 0.602737 1 1 0
0.133856 0.602748 0.602748 1 1 0
0.13386 0.602759 0.602759 1 1 0
0.133865 0.60277 0.60277 1 1 0
0.133869 0.602781 0.602781 1 1 0
0.133874 0.602792 0.602792 1 1 0
0.133878 0.602803 0.602803 1 1 0
0.133883 0.602814 0.602814 1 1 0
0.133887 0.602824 0.602824 1 1 0
0.133892 0.602835 0.602835 1 1 0
0.133896 0.602846 0.602846 1 1 0
0.133901 0.602857 0.602857 1 1 0
0.133905 0.602868 0.602868 1 1 0
0.13391 0.602879 0.602879 1 1 0
0.133914 0.60289 0.60289 1 1 0
0.133919 0.602901 0.602901 1 1 0
0.133923 0.602912 0.602912 1 1 0
0.133928 0.602923 0.602923 1 1 0
0.133932 0.602934 0.602934 1 1 0
0.133937 0.602945 0.602945 1 1 0
0.133941 0.602956 0.602956 1 1 0
0.133946 0.602967 0.602967 1 1 0
0.13395 0.602978 0.602978 1 1 0
0.133955 0.602989 0.602989 1 1 0
0.133959 0.603 0.603 1 1 0
0.133964 0.603011 0.603011 1 1 0
0.133968 0.603022 0.603022 1 1 0
0.133973 0.603033 0.603033 1 1 0
0.133977 0.603044 0.603044 1 1 0
0.133982 0.603055 0.603055 1 1 0
0.133986 0.603066 0.603066 1 1 0
0.133991 0.603077 0.603077 1 1 0
0.133995 0.603087 0.603087 1 1 0
0.134 0.603098 0.603098 1 1 0
0.134004 0.603109 0.603109 1 1 0
0.134009 0.60312 0.60312 1 1 0
0.134013 0.603131 0.603131 1 1 0
0.134018 0.603142 0.603142 1 1 0
0.134022 0.603153 0.603153 1 1 0
0.134027 0.603164 0.603164 1 1 0
0.134032 0.603175 0.603175 1 1 0
0.134036 0.603186 0.603186 1 1 0
0.134041 0.603197 0.603197 1 1 0
0.134045 0.603208 0.603208 1 1 0
0.13405 0.603219 0.603219 1 1 0
0.134054 0.60323 0.60323 1 1 0
0.134059 0.603241 0.603241 1 1 0
0.134063 0.603252 0.603252 1 1 0
0.134068 0.603263 0.603263 1 1 0
0.134072 0.603274 0.603274 1 1 0
0.134077 0.603285 0.603285 1 1 0
0.134081 0.603296 0.603296 1 1 0
0.134086 0.603307 0.603307 1 1 0
0.13409 0.603318 0.603318 1 1 0
0.134095 0.603329 0.603329 1 1 0
0.134099 0.60334 0.60334 1 1 0
0.134104 0.60335 0.60335 1 1 0
0.134108 0.603361 0.603361 1 1 0
0.134113 0.603372 0.603372 1 1 0
0.134118 0.603383 0.603383 1 1 0
0.134122 0.603394 0.603394 1 1 0
0.134127 0.603405 0.603405 1 1 0
0.134131 0.603416 0.603416 1 1 0
0.134136 0.603427 0.603427 1 1 0
0.13414 0.603438 0.603438 1 1 0
0.134145 0.603449 0.603449 1 1 0
0.134149 0.60346 0.60346 1 1 0
0.134154 0.603471 0.603471 1 1 0
0.134158 0.603482 0.603482 1 1 0
0.134163 0.603493 0.603493 1 1 0
0.134167 0.603504 0.603504 1 1 0
0.134172 0.603515 0.603515 1 1 0
0.134177 0.603526 0.603526 1 1 0
0.134181 0.603537 0.603537 1 1 0
0.134186 0.603548 0.603548 1 1 0
0.13419 0.603559 0.603559 1 1 0
0.134195 0.60357 0.60357 1 1 0
0.134199 0.603581 0.603581 1 1 0
0.134204 0.603592 0.603592 1 1 0
0.134208 0.603603 0.603603 1 1 0
0.134213 0.603613 0.603613 1 1 0
0.134217 0.603624 0.603624 1 1 0
0.134222 0.603635 0.603635 1 1 0
0.134227 0.603646 0.603646 1 1 0
0.134231 0.603657 0.603657 1 1 0
0.134236 0.603668 0.603668 1 1 0
0.13424 0.603679 0.603679 1 1 0
0.134245 0.60369 0.60369 1 1 0
0.134249 0.603701 0.603701 1 1 0
0.134254 0.603712 0.603712 1 1 0
0.134258 0.603723 0.603723 1 1 0
0.134263 0.603734 0.603734 1 1 0
0.134268 0.603745 0.603745 1 1 0
0.134272 0.603756 0.603756 1 1 0
0.134277 0.603767 0.603767 1 1 0
0.134281 0.603778 0.603778 1 1 0
0.134286 0.603789 0.603789 1 1 0
0.13429 0.6038 0.6038 1 1 0
0.134295 0.603811 0.603811 1 1 0
0.1343 0.603822 0.603822 1 1 0
0.134304 0.603833 0.603833 1 1 0
0.134309 0.603844 0.603844 1 1 0
0.134313 0.603855 0.603855 1 1 0
0.134318 0.603866 0.603866 1 1 0
0.134322 0.603876 0.603876 1 1 0
0.134327 0.603887 0.603887 1 1 0
0.134331 0.603898 0.603898 1 1 0
0.134336 0.603909 0.603909 1 1 0
0.134341 0.60392 0.60392 1 1 0
0.134345 0.603931 0.603931 1 1 0
0.13435 0.603942 0.603942 1 1 0
0.134354 0.603953 0.603953 1 1 0
0.134359 0.603964 0.603964 1 1 0
0.134363 0.603975 0.603975 1 1 0
0.134368 0.603986 0.603986 1 1 0
0.134373 0.603997 0.603997 1 1 0
0.134377 0.604008 0.604008 1 1 0
0.134382 0.604019 0.604019 1 1 0
0.134386 0.60403 0.60403 1 1 0
0.134391 0.604041 0.604041 1 1 0
0.134395 0.604052 0.604052 1 1 0
0.1344 0.604063 0.604063 1 1 0
0.134405 0.604074 0.604074 1 1 0
0.134409 0.604085 0.604085 1 1 0
0.134414 0.604096 0.604096 1 1 0
0.134418 0.604107 0.604107 1 1 0
0.134423 0.604118 0.604118 1 1 0
0.134428 0.604128 0.604128 1 1 0
0.134432 0.604139 0.604139 1 1 0
0.134437 0.60415 0.60415 1 1 0
0.134441 0.604161 0.604161 1 1 0
0.134446 0.604172 0.604172 1 1 0
0.13445 0.604183 0.604183 1 1 0
0.134455 0.604194 0.604194 1 1 0
0.13446 0.604205 0.604205 1 1 0
0.134464 0.604216 0.604216 1 1 0
0.134469 0.604227 0.604227 1 1 0
0.134473 0.604238 0.604238 1 1 0
0.134478 0.604249 0.604249 1 1 0
0.134483 0.60426 0.60426 1 1 0
0.134487 0.604271 0.604271 1 1 0
0.134492 0.604282 0.604282 1 1 0
0.134496 0.604293 0.604293 1 1 0
0.134501 0.604304 0.604304 1 1 0
0.134506 0.604315 0.604315 1 1 0
0.13451 0.604326 0.604326 1 1 0
0.134515 0.604337 0.604337 1 1 0
0.134519 0.604348 0.604348 1 1 0
0.134524 0.604359 0.604359 1 1 0
0.134528 0.60437 0.60437 1 1 0
0.134533 0.604381 0.604381 1 1 0
0.134538 0.604391 0.604391 1 1 0
0.134542 0.604402 0.604402 1 1 0
0.134547 0.604413 0.604413 1 1 0
0.134551 0.604424 0.604424 1 1 0
0.134556 0.604435 0.604435 1 1 0
0.134561 0.604446 0.604446 1 1 0
0.134565 0.604457 0.604457 1 1 0
0.13457 0.604468 0.604468 1 1 0
0.134574 0.604479 0.604479 1 1 0
0.134579 0.60449 0.60449 1 1 0
0.134584 0.604501 0.604501 1 1 0
0.134588 0.604512 0.604512 1 1 0
0.134593 0.604523 0.604523 1 1 0
0.134598 0.604534 0.604534 1 1 0
0.134602 0.604545 0.604545 1 1 0
0.134607 0.604556 0.604556 1 1 0
0.134611 0.604567 0.604567 1 1 0
0.134616 0.604578 0.604578 1 1 0
0.134621 0.604589 0.604589 1 1 0
0.134625 0.6046 0.6046 1 1 0
0.13463 0.604611 0.604611 1 1 0
0.134634 0.604622 0.604622 1 1 0
0.134639 0.604633 0.604633 1 1 0
0.134644 0.604644 0.604644 1 1 0
0.134648 0.604654 0.604654 1 1 0
0.134653 0.604665 0.604665 1 1 0
0.134657 0.604676 0.604676 1 1 0
0.134662 0.604687 0.604687 1 1 0
0.134667 0.604698 0.604698 1 1 0
0.134671 0.604709 0.604709 1 1 0
0.134676 0.60472 0.60472 1 1 0
0.134681 0.604731 0.604731 1 1 0
0.134685 0.604742 0.604742 1 1 0
0.13469 0.604753 0.604753 1 1 0
0.134694 0.604764 0.604764 1 1 0
0.134699 0.604775 0.604775 1 1 0
0.134704 0.604786 0.604786 1 1 0
0.134708 0.604797 0.604797 1 1 0
0.134713 0.604808 0.604808 1 1 0
0.134718 0.604819 0.604819 1 1 0
0.134722 0.60483 0.60483 1 1 0
0.134727 0.604841 0.604841 1 1 0
0.134731 0.604852 0.604852 1 1 0
0.134736 0.604863 0.604863 1 1 0
0.134741 0.604874 0.604874 1 1 0
0.134745 0.604885 0.604885 1 1 0
0.13475 0.604896 0.604896 1 1 0
0.134755 0.604907 0.604907 1 1 0
0.134759 0.604917 0.604917 1 1 0
0.134764 0.604928 0.604928 1 1 0
0.134768 0.604939 0.604939 1 1 0
0.134773 0.60495 0.60495 1 1 0
0.134778 0.604961 0.604961 1 1 0
0.134782 0.604972 0.604972 1 1 0
0.134787 0.604983 0.604983 1 1 0
0.134792 0.604994 0.604994 1 1 0
0.134796 0.605005 0.605005 1 1 0
0.134801 0.605016 0.605016 1 1 0
0.134806 0.605027 0.605027 1 1 0
0.13481 0.605038 0.605038 1 1 0
0.134815 0.605049 0.605049 1 1 0
0.134819 0.60506 0.60506 1 1 0
0.134824 0.605071 0.605071 1 1 0
0.134829 0.605082 0.605082 1 1 0
0.134833 0.605093 0.605093 1 1 0
0.134838 0.605104 0.605104 1 1 0
0.134843 0.605115 0.605115 1 1 0
0.134847 0.605126 0.605126 1 1 0
0.134852 0.605137 0.605137 1 1 0
0.134857 0.605148 0.605148 1 1 0
0.134861 0.605159 0.605159 1 1 0
0.134866 0.605169 0.605169 1 1 0
0.134871 0.60518 0.60518 1 1 0
0.134875 0.605191 0.605191 1 1 0
0.13488 0.605202 0.605202 1 1 0
0.134885 0.605213 0.605213 1 1 0
0.134889 0.605224 0.605224 1 1 0
0.134894 0.605235 0.605235 1 1 0
0.134898 0.605246 0.605246 1 1 0
0.134903 0.605257 0.605257 1 1 0
0.134908 0.605268 0.605268 1 1 0
0.134912 0.605279 0.605279 1 1 0
0.134917 0.60529 0.60529 1 1 0
0.134922 0.605301 0.605301 1 1 0
0.134926 0.605312 0.605312 1 1 0
0.134931 0.605323 0.605323 1 1 0
0.134936 0.605334 0.605334 1 1 0
0.13494 0.605345 0.605345 1 1 0
0.134945 0.605356 0.605356 1 1 0
0.13495 0.605367 0.605367 1 1 0
0.134954 0.605378 0.605378 1 1 0
0.134959 0.605389 0.605389 1 1 0
0.134964 0.6054 0.6054 1 1 0
0.134968 0.605411 0.605411 1 1 0
0.134973 0.605422 0.605422 1 1 0
0.134978 0.605432 0.605432 1 1 0
0.134982 0.605443 0.605443 1 1 0
0.134987 0.605454 0.605454 1 1 0
0.134992 0.605465 0.605465 1 1 0
0.134996 0.605476 0.605476 1 1 0
0.135001 0.605487 0.605487 1 1 0
0.135006 0.605498 0.605498 1 1 0
0.13501 0.605509 0.605509 1 1 0
0.135015 0.60552 0.60552 1 1 0
0.13502 0.605531 0.605531 1 1 0
0.135024 0.605542 0.605542 1 1 0
0.135029 0.605553 0.605553 1 1 0
0.135034 0.605564 0.605564 1 1 0
0.135038 0.605575 0.605575 1 1 0
0.135043 0.605586 0.605586 1 1 0
0.135048 0.605597 0.605597 1 1 0
0.135052 0.605608 0.605608 1 1 0
0.135057 0.605619 0.605619 1 1 0
0.135062 0.60563 0.60563 1 1 0
0.135066 0.605641 0.605641 1 1 0
0.135071 0.605652 0.605652 1 1 0
0.135076 0.605663 0.605663 1 1 0
0.13508 0.605674 0.605674 1 1 0
0.135085 0.605684 0.605684 1 1 0
0.13509 0.605695 0.605695 1 1 0
0.135095 0.605706 0.605706 1 1 0
0.135099 0.605717 0.605717 1 1 0
0.135104 0.605728 0.605728 1 1 0
0.135109 0.605739 0.605739 1 1 0
0.135113 0.60575 0.60575 1 1 0
0.135118 0.605761 0.605761 1 1 0
0.135123 0.605772 0.605772 1 1 0
0.135127 0.605783 0.605783 1 1 0
0.135132 0.605794 0.605794 1 1 0
0.135137 0.605805 0.605805 1 1 0
0.135141 0.605816 0.605816 1 1 0
0.135146 0.605827 0.605827 1 1 0
0.135151 0.605838 0.605838 1 1 0
0.135155 0.605849 0.605849 1 1 0
0.13516 0.60586 0.60586 1 1 0
0.135165 0.605871 0.605871 1 1 0
0.13517 0.605882 0.605882 1 1 0
0.135174 0.605893 0.605893 1 1 0
0.135179 0.605904 0.605904 1 1 0
0.135184 0.605915 0.605915 1 1 0
0.135188 0.605926 0.605926 1 1 0
0.135193 0.605937 0.605937 1 1 0
0.135198 0.605947 0.605947 1 1 0
0.135202 0.605958 0.605958 1 1 0
0.135207 0.605969 0.605969 1 1 0
0.135212 0.60598 0.60598 1 1 0
0.135217 0.605991 0.605991 1 1 0
0.135221 0.606002 0.606002 1 1 0
0.135226 0.606013 0.606013 1 1 0
0.135231 0.606024 0.606024 1 1 0
0.135235 0.606035 0.606035 1 1 0
0.13524 0.606046 0.606046 1 1 0
0.135245 0.606057 0.606057 1 1 0
0.135249 0.606068 0.606068 1 1 0
0.135254 0.606079 0.606079 1 1 0
0.135259 0.60609 0.60609 1 1 0
0.135264 0.606101 0.606101 1 1 0
0.135268 0.606112 0.606112 1 1 0
0.135273 0.606123 0.606123 1 1 0
0.135278 0.606134 0.606134 1 1 0
0.135282 0.606145 0.606145 1 1 0
0.135287 0.606156 0.606156 1 1 0
0.135292 0.606167 0.606167 1 1 0
0.135297 0.606178 0.606178 1 1 0
0.135301 0.606189 0.606189 1 1 0
0.135306 0.6062 0.6062 1 1 0
0.135311 0.60621 0.60621 1 1 0
0.135315 0.606221 0.606221 1 1 0
0.13532 0.606232 0.606232 1 1 0
0.135325 0.606243 0.606243 1 1 0
0.13533 0.606254 0.606254 1 1 0
0.135334 0.606265 0.606265 1 1 0
0.135339 0.606276 0.606276 1 1 0
0.135344 0.606287 0.606287 1 1 0
0.135348 0.606298 0.606298 1 1 0
0.135353 0.606309 0.606309 1 1 0
0.135358 0.60632 0.60632 1 1 0
0.135363 0.606331 0.606331 1 1 0
0.135367 0.606342 0.606342 1 1 0
0.135372 0.606353 0.606353 1 1 0
0.135377 0.606364 0.606364 1 1 0
0.135382 0.606375 0.606375 1 1 0
0.135386 0.606386 0.606386 1 1 0
0.135391 0.606397 0.606397 1 1 0
0.135396 0.606408 0.606408 1 1 0
0.1354 0.606419 0.606419 1 1 0
0.135405 0.60643 0.60643 1 1 0
0.13541 0.606441 0.606441 1 1 0
0.135415 0.606452 0.606452 1 1 0
0.135419 0.606462 0.606462 1 1 0
0.135424 0.606473 0.606473 1 1 0
0.135429 0.606484 0.606484 1 1 0
0.135434 0.606495 0.606495 1 1 0
0.135438 0.606506 0.606506 1 1 0
0.135443 0.606517 0.606517 1 1 0
0.135448 0.606528 0.606528 1 1 0
0.135453 0.606539 0.606539 1 1 0
0.135457 0.60655 0.60655 1 1 0
0.135462 0.606561 0.606561 1 1 0
0.135467 0.606572 0.606572 1 1 0
0.135472 0.606583 0.606583 1 1 0
0.135476 0.606594 0.606594 1 1 0
0.135481 0.606605 0.606605 1 1 0
0.135486 0.606616 0.606616 1 1 0
0.135491 0.606627 0.606627 1 1 0
0.135495 0.606638 0.606638 1 1 0
0.1355 0.606649 0.606649 1 1 0
0.135505 0.60666 0.60666 1 1 0
0.135509 0.606671 0.606671 1 1 0
0.135514 0.606682 0.606682 1 1 0
0.135519 0.606693 0.606693 1 1 0
0.135524 0.606704 0.606704 1 1 0
0.135528 0.606715 0.606715 1 1 0
0.135533 0.606725 0.606725 1 1 0
0.135538 0.606736 0.606736 1 1 0
0.135543 0.606747 0.606747 1 1 0
0.135547 0.606758 0.606758 1 1 0
0.135552 0.606769 0.606769 1 1 0
0.135557 0.60678 0.60678 1 1 0
0.135562 0.606791 0.606791 1 1 0
0.135567 0.606802 0.606802 1 1 0
0.135571 0.606813 0.606813 1 1 0
0.135576 0.606824 0.606824 1 1 0
0.135581 0.606835 0.606835 1 1 0
0.135586 0.606846 0.606846 1 1 0
0.13559 0.606857 0.606857 1 1 0
0.135595 0.606868 0.606868 1 1 0
0.1356 0.606879 0.606879 1 1 0
0.135605 0.60689 0.60689 1 1 0
0.135609 0.606901 0.606901 1 1 0
0.135614 0.606912 0.606912 1 1 0
0.135619 0.606923 0.606923 1 1 0
0.135624 0.606934 0.606934 1 1 0
0.135628 0.606945 0.606945 1 1 0
0.135633 0.606956 0.606956 1 1 0
0.135638 0.606967 0.606967 1 1 0
0.135643 0.606977 0.606977 1 1 0
0.135647 0.606988 0.606988 1 1 0
0.135652 0.606999 0.606999 1 1 0
0.135657 0.60701 0.60701 1 1 0
0.135662 0.607021 0.607021 1 1 0
0.135667 0.607032 0.607032 1 1 0
0.135671 0.607043 0.607043 1 1 0
0.135676 0.607054 0.607054 1 1 0
0.135681 0.607065 0.607065 1 1 0
0.135686 0.607076 0.607076 1 1 0
0.13569 0.607087 0.607087 1 1 0
0.135695 0.607098 0.607098 1 1 0
0.1357 0.607109 0.607109 1 1 0
0.135705 0.60712 0.60712 1 1 0
0.13571 0.607131 0.607131 1 1 0
0.135714 0.607142 0.607142 1 1 0
0.135719 0.607153 0.607153 1 1 0
0.135724 0.607164 0.607164 1 1 0
0.135729 0.607175 0.607175 1 1 0
0.135733 0.607186 0.607186 1 1 0
0.135738 0.607197 0.607197 1 1 0
0.135743 0.607208 0.607208 1 1 0
0.135748 0.607219 0.607219 1 1 0
0.135753 0.60723 0.60723 1 1 0
0.135757 0.60724 0.60724 1 1 0
0.135762 0.607251 0.607251 1 1 0
0.135767 0.607262 0.607262 1 1 0
0.135772 0.607273 0.607273 1 1 0
0.135777 0.607284 0.607284 1 1 0
0.135781 0.607295 0.607295 1 1 0
0.135786 0.607306 0.607306 1 1 0
0.135791 0.607317 0.607317 1 1 0
0.135796 0.607328 0.607328 1 1 0
0.135801 0.607339 0.607339 1 1 0
0.135805 0.60735 0.60735 1 1 0
0.13581 0.607361 0.607361 1 1 0
0.135815 0.607372 0.607372 1 1 0
0.13582 0.607383 0.607383 1 1 0
0.135824 0.607394 0.607394 1 1 0
0.135829 0.607405 0.607405 1 1 0
0.135834 0.607416 0.607416 1 1 0
0.135839 0.607427 0.607427 1 1 0
0.135844 0.607438 0.607438 1 1 0
0.135848 0.607449 0.607449 1 1 0
0.135853 0.60746 0.60746 1 1 0
0.135858 0.607471 0.607471 1 1 0
0.135863 0.607482 0.607482 1 1 0
0.135868 0.607492 0.607492 1 1 0
0.135873 0.607503 0.607503 1 1 0
0.135877 0.607514 0.607514 1 1 0
0.135882 0.607525 0.607525 1 1 0
0.135887 0.607536 0.607536 1 1 0
0.135892 0.607547 0.607547 1 1 0
0.135897 0.607558 0.607558 1 1 0
0.135901 0.607569 0.607569 1 1 0
0.135906 0.60758 0.60758 1 1 0
0.135911 0.607591 0.607591 1 1 0
0.135916 0.607602 0.607602 1 1 0
0.135921 0.607613 0.607613 1 1 0
0.135925 0.607624 0.607624 1 1 0
0.13593 0.607635 0.607635 1 1 0
0.135935 0.607646 0.607646 1 1 0
0.13594 0.607657 0.607657 1 1 0
0.135945 0.607668 0.607668 1 1 0
0.13595 0.607679 0.607679 1 1 0
0.135954 0.60769 0.60769 1 1 0
0.135959 0.607701 0.607701 1 1 0
0.135964 0.607712 0.607712 1 1 0
0.135969 0.607723 0.607723 1 1 0
0.135974 0.607734 0.607734 1 1 0
0.135978 0.607744 0.607744 1 1 0
0.135983 0.607755 0.607755 1 1 0
0.135988 0.607766 0.607766 1 1 0
0.135993 0.607777 0.607777 1 1 0
0.135998 0.607788 0.607788 1 1 0
0.136003 0.607799 0.607799 1 1 0
0.136007 0.60781 0.60781 1 1 0
0.136012 0.607821 0.607821 1 1 0
0.136017 0.607832 0.607832 1 1 0
0.136022 0.607843 0.607843 1 1 0
0.136027 0.607854 0.607854 1 1 0
0.136032 0.607865 0.607865 1 1 0
0.136036 0.607876 0.607876 1 1 0
0.136041 0.607887 0.607887 1 1 0
0.136046 0.607898 0.607898 1 1 0
0.136051 0.607909 0.607909 1 1 0
0.136056 0.60792 0.60792 1 1 0
0.136061 0.607931 0.607931 1 1 0
0.136065 0.607942 0.607942 1 1 0
0.13607 0.607953 0.607953 1 1 0
0.136075 0.607964 0.607964 1 1 0
0.13608 0.607975 0.607975 1 1 0
0.136085 0.607986 0.607986 1 1 0
0.13609 0.607997 0.607997 1 1 0
0.136094 0.608007 0.608007 1 1 0
0.136099 0.608018 0.608018 1 1 0
0.136104 0.608029 0.608029 1 1 0
0.136109 0.60804 0.60804 1 1 0
0.136114 0.608051 0.608051 1 1 0
0.136119 0.608062 0.608062 1 1 0
0.136123 0.608073 0.608073 1 1 0
0.136128 0.608084 0.608084 1 1 0
0.136133 0.608095 0.608095 1 1 0
0.136138 0.608106 0.608106 1 1 0
0.136143 0.608117 0.608117 1 1 0
0.136148 0.608128 0.608128 1 1 0
0.136153 0.608139 0.608139 1 1 0
0.136157 0.60815 0.60815 1 1 0
0.136162 0.608161 0.608161 1 1 0
0.136167 0.608172 0.608172 1 1 0
0.136172 0.608183 0.608183 1 1 0
0.136177 0.608194 0.608194 1 1 0
0.136182 0.608205 0.608205 1 1 0
0.136187 0.608216 0.608216 1 1 0
0.136191 0.608227 0.608227 1 1 0
0.136196 0.608238 0.608238 1 1 0
0.136201 0.608249 0.608249 1 1 0
0.136206 0.608259 0.608259 1 1 0
0.136211 0.60827 0.60827 1 1 0
0.136216 0.608281 0.608281 1 1 0
0.136221 0.608292 0.608292 1 1 0
0.136225 0.608303 0.608303 1 1 0
0.13623 0.608314 0.608314 1 1 0
0.136235 0.608325 0.608325 1 1 0
0.13624 0.608336 0.608336 1 1 0
0.136245 0.608347 0.608347 1 1 0
0.13625 0.608358 0.608358 1 1 0
0.136255 0.608369 0.608369 1 1 0
0.136259 0.60838 0.60838 1 1 0
0.136264 0.608391 0.608391 1 1 0
0.136269 0.608402 0.608402 1 1 0
0.136274 0.608413 0.608413 1 1 0
0.136279 0.608424 0.608424 1 1 0
0.136284 0.608435 0.608435 1 1 0
0.136289 0.608446 0.608446 1 1 0
0.136294 0.608457 0.608457 1 1 0
0.136298 0.608468 0.608468 1 1 0
0.136303 0.608479 0.608479 1 1 0
0.136308 0.60849 0.60849 1 1 0
0.136313 0.608501 0.608501 1 1 0
0.136318 0.608512 0.608512 1 1 0
0.136323 0.608522 0.608522 1 1 0
0.136328 0.608533 0.608533 1 1 0
0.136333 0.608544 0.608544 1 1 0
0.136337 0.608555 0.608555 1 1 0
0.136342 0.608566 0.608566 1 1 0
0.136347 0.608577 0.608577 1 1 0
0.136352 0.608588 0.608588 1 1 0
0.136357 0.608599 0.608599 1 1 0
0.136362 0.60861 0.60861 1 1 0
0.136367 0.608621 0.608621 1 1 0
0.136372 0.608632 0.608632 1 1 0
0.136377 0.608643 0.608643 1 1 0
0.136381 0.608654 0.608654 1 1 0
0.136386 0.608665 0.608665 1 1 0
0.136391 0.608676 0.608676 1 1 0
0.136396 0.608687 0.608687 1 1 0
0.136401 0.608698 0.608698 1 1 0
0.136406 0.608709 0.608709 1 1 0
0.136411 0.60872 0.60872 1 1 0
0.136416 0.608731 0.608731 1 1 0
0.136421 0.608742 0.608742 1 1 0
0.136425 0.608753 0.608753 1 1 0
0.13643 0.608764 0.608764 1 1 0
0.136435 0.608774 0.608774 1 1 0
0.13644 0.608785 0.608785 1 1 0
0.136445 0.608796 0.608796 1 1 0
0.13645 0.608807 0.608807 1 1 0
0.136455 0.608818 0.608818 1 1 0
0.13646 0.608829 0.608829 1 1 0
0.136465 0.60884 0.60884 1 1 0
0.13647 0.608851 0.608851 1 1 0
0.136474 0.608862 0.608862 1 1 0
0.136479 0.608873 0.608873 1 1 0
0.136484 0.608884 0.608884 1 1 0
0.136489 0.608895 0.608895 1 1 0
0.136494 0.608906 0.608906 1 1 0
0.136499 0.608917 0.608917 1 1 0
0.136504 0.608928 0.608928 1 1 0
0.136509 0.608939 0.608939 1 1 0
0.136514 0.60895 0.60895 1 1 0
0.136519 0.608961 0.608961 1 1 0
0.136523 0.608972 0.608972 1 1 0
0.136528 0.608983 0.608983 1 1 0
0.136533 0.608994 0.608994 1 1 0
0.136538 0.609005 0.609005 1 1 0
0.136543 0.609016 0.609016 1 1 0
0.136548 0.609026 0.609026 1 1 0
0.136553 0.609037 0.609037 1 1 0
0.136558 0.609048 0.609048 1 1 0
0.136563 0.609059 0.609059 1 1 0
0.136568 0.60907 0.60907 1 1 0
0.136573 0.609081 0.609081 1 1 0
0.136578 0.609092 0.609092 1 1 0
0.136582 0.609103 0.609103 1 1 0
0.136587 0.609114 0.609114 1 1 0
0.136592 0.609125 0.609125 1 1 0
0.136597 0.609136 0.609136 1 1 0
0.136602 0.609147 0.609147 1 1 0
0.136607 0.609158 0.609158 1 1 0
0.136612 0.609169 0.609169 1 1 0
0.136617 0.60918 0.60918 1 1 0
0.136622 0.609191 0.609191 1 1 0
0.136627 0.609202 0.609202 1 1 0
0.136632 0.609213 0.609213 1 1 0
0.136637 0.609224 0.609224 1 1 0
0.136642 0.609235 0.609235 1 1 0
0.136647 0.609246 0.609246 1 1 0
0.136651 0.609257 0.609257 1 1 0
0.136656 0.609268 0.609268 1 1 0
0.136661 0.609278 0.609278 1 1 0
0.136666 0.609289 0.609289 1 1 0
0.136671 0.6093 0.6093 1 1 0
0.136676 0.609311 0.609311 1 1 0
0.136681 0.609322 0.609322 1 1 0
0.136686 0.609333 0.609333 1 1 0
0.136691 0.609344 0.609344 1 1 0
0.136696 0.609355 0.609355 1 1 0
0.136701 0.609366 0.609366 1 1 0
0.136706 0.609377 0.609377 1 1 0
0.136711 0.609388 0.609388 1 1 0
0.136716 0.609399 0.609399 1 1 0
0.136721 0.60941 0.60941 1 1 0
0.136726 0.609421 0.609421 1 1 0
0.13673 0.609432 0.609432 1 1 0
0.136735 0.609443 0.609443 1 1 0
0.13674 0.609454 0.609454 1 1 0
0.136745 0.609465 0.609465 1 1 0
0.13675 0.609476 0.609476 1 1 0
0.136755 0.609487 0.609487 1 1 0
0.13676 0.609498 0.609498 1 1 0
0.136765 0.609509 0.609509 1 1 0
0.13677 0.60952 0.60952 1 1 0
0.136775 0.609531 0.609531 1 1 0
0.13678 0.609541 0.609541 1 1 0
0.136785 0.609552 0.609552 1 1 0
0.13679 0.609563 0.609563 1 1 0
0.136795 0.609574 0.609574 1 1 0
0.1368 0.609585 0.609585 1 1 0
0.136805 0.609596 0.609596 1 1 0
0.13681 0.609607 0.609607 1 1 0
0.136815 0.609618 0.609618 1 1 0
0.13682 0.609629 0.609629 1 1 0
0.136825 0.60964 0.60964 1 1 0
0.13683 0.609651 0.609651 1 1 0
0.136835 0.609662 0.609662 1 1 0
0.136839 0.609673 0.609673 1 1 0
0.136844 0.609684 0.609684 1 1 0
0.136849 0.609695 0.609695 1 1 0
0.136854 0.609706 0.609706 1 1 0
0.136859 0.609717 0.609717 1 1 0
0.136864 0.609728 0.609728 1 1 0
0.136869 0.609739 0.609739 1 1 0
0.136874 0.60975 0.60975 1 1 0
0.136879 0.609761 0.609761 1 1 0
0.136884 0.609772 0.609772 1 1 0
0.136889 0.609783 0.609783 1 1 0
0.136894 0.609793 0.609793 1 1 0
0.136899 0.609804 0.609804 1 1 0
0.136904 0.609815 0.609815 1 1 0
0.136909 0.609826 0.609826 1 1 0
0.136914 0.609837 0.609837 1 1 0
0.136919 0.609848 0.609848 1 1 0
0.136924 0.609859 0.609859 1 1 0
0.136929 0.60987 0.60987 1 1 0
0.136934 0.609881 0.609881 1 1 0
0.136939 0.609892 0.609892 1 1 0
0.136944 0.609903 0.609903 1 1 0
0.136949 0.609914 0.609914 1 1 0
0.136954 0.609925 0.609925 1 1 0
0.136959 0.609936 0.609936 1 1 0
0.136964 0.609947 0.609947 1 1 0
0.136969 0.609958 0.609958 1 1 0
0.136974 0.609969 0.609969 1 1 0
0.136979 0.60998 0.60998 1 1 0
0.136984 0.609991 0.609991 1 1 0
0.136989 0.610002 0.610002 1 1 0
0.136994 0.610013 0.610013 1 1 0
0.136999 0.610024 0.610024 1 1 0
0.137004 0.610035 0.610035 1 1 0
0.137009 0.610045 0.610045 1 1 0
0.137014 0.610056 0.610056 1 1 0
0.137019 0.610067 0.610067 1 1 0
0.137024 0.610078 0.610078 1 1 0
0.137029 0.610089 0.610089 1 1 0
0.137034 0.6101 0.6101 1 1 0
0.137039 0.610111 0.610111 1 1 0
0.137044 0.610122 0.610122 1 1 0
0.137049 0.610133 0.610133 1 1 0
0.137054 0.610144 0.610144 1 1 0
0.137059 0.610155 0.610155 1 1 0
0.137064 0.610166 0.610166 1 1 0
0.137069 0.610177 0.610177 1 1 0
0.137074 0.610188 0.610188 1 1 0
0.137079 0.610199 0.610199 1 1 0
0.137084 0.61021 0.61021 1 1 0
0.137089 0.610221 0.610221 1 1 0
0.137094 0.610232 0.610232 1 1 0
0.137099 0.610243 0.610243 1 1 0
0.137104 0.610254 0.610254 1 1 0
0.137109 0.610265 0.610265 1 1 0
0.137114 0.610276 0.610276 1 1 0
0.137119 0.610287 0.610287 1 1 0
0.137124 0.610297 0.610297 1 1 0
0.137129 0.610308 0.610308 1 1 0
0.137134 0.610319 0.610319 1 1 0
0.137139 0.61033 0.61033 1 1 0
0.137144 0.610341 0.610341 1 1 0
0.137149 0.610352 0.610352 1 1 0
0.137154 0.610363 0.610363 1 1 0
0.137159 0.610374 0.610374 1 1 0
0.137164 0.610385 0.610385 1 1 0
0.137169 0.610396 0.610396 1 1 0
0.137174 0.610407 0.610407 1 1 0
0.137179 0.610418 0.610418 1 1 0
0.137184 0.610429 0.610429 1 1 0
0.137189 0.61044 0.61044 1 1 0
0.137194 0.610451 0.610451 1 1 0
0.137199 0.610462 0.610462 1 1 0
0.137204 0.610473 0.610473 1 1 0
0.137209 0.610484 0.610484 1 1 0
0.137214 0.610495 0.610495 1 1 0
0.137219 0.610506 0.610506 1 1 0
0.137224 0.610517 0.610517 1 1 0
0.137229 0.610528 0.610528 1 1 0
0.137234 0.610539 0.610539 1 1 0
0.137239 0.610549 0.610549 1 1 0
0.137244 0.61056 0.61056 1 1 0
0.137249 0.610571 0.610571 1 1 0
0.137254 0.610582 0.610582 1 1 0
0.137259 0.610593 0.610593 1 1 0
0.137264 0.610604 0.610604 1 1 0
0.137269 0.610615 0.610615 1 1 0
0.137275 0.610626 0.610626 1 1 0
0.13728 0.610637 0.610637 1 1 0
0.137285 0.610648 0.610648 1 1 0
0.13729 0.610659 0.610659 1 1 0
0.137295 0.61067 0.61067 1 1 0
0.1373 0.610681 0.610681 1 1 0
0.137305 0.610692 0.610692 1 1 0
0.13731 0.610703 0.610703 1 1 0
0.137315 0.610714 0.610714 1 1 0
0.13732 0.610725 0.610725 1 1 0
0.137325 0.610736 0.610736 1 1 0
0.13733 0.610747 0.610747 1 1 0
0.137335 0.610758 0.610758 1 1 0
0.13734 0.610769 0.610769 1 1 0
0.137345 0.61078 0.61078 1 1 0
0.13735 0.610791 0.610791 1 1 0
0.137355 0.610801 0.610801 1 1 0
0.13736 0.610812 0.610812 1 1 0
0.137365 0.610823 0.610823 1 1 0
0.13737 0.610834 0.610834 1 1 0
0.137375 0.610845 0.610845 1 1 0
0.13738 0.610856 0.610856 1 1 0
0.137386 0.610867 0.610867 1 1 0
0.137391 0.610878 0.610878 1 1 0
0.137396 0.610889 0.610889 1 1 0
0.137401 0.6109 0.6109 1 1 0
0.137406 0.610911 0.610911 1 1 0
0.137411 0.610922 0.610922 1 1 0
0.137416 0.610933 0.610933 1 1 0
0.137421 0.610944 0.610944 1 1 0
0.137426 0.610955 0.610955 1 1 0
0.137431 0.610966 0.610966 1 1 0
0.137436 0.610977 0.610977 1 1 0
0.137441 0.610988 0.610988 1 1 0
0.137446 0.610999 0.610999 1 1 0
0.137451 0.61101 0.61101 1 1 0
0.137456 0.611021 0.611021 1 1 0
0.137461 0.611032 0.611032 1 1 0
0.137467 0.611043 0.611043 1 1 0
0.137472 0.611053 0.611053 1 1 0
0.137477 0.611064 0.611064 1 1 0
0.137482 0.611075 0.611075 1 1 0
0.137487 0.611086 0.611086 1 1 0
0.137492 0.611097 0.611097 1 1 0
0.137497 0.611108 0.611108 1 1 0
0.137502 0.611119 0.611119 1 1 0
0.137507 0.61113 0.61113 1 1 0
0.137512 0.611141 0.611141 1 1 0
0.137517 0.611152 0.611152 1 1 0
0.137522 0.611163 0.611163 1 1 0
0.137527 0.611174 0.611174 1 1 0
0.137533 0.611185 0.611185 1 1 0
0.137538 0.611196 0.611196 1 1 0
0.137543 0.611207 0.611207 1 1 0
0.137548 0.611218 0.611218 1 1 0
0.137553 0.611229 0.611229 1 1 0
0.137558 0.61124 0.61124 1 1 0
0.137563 0.611251 0.611251 1 1 0
0.137568 0.611262 0.611262 1 1 0
0.137573 0.611273 0.611273 1 1 0
0.137578 0.611284 0.611284 1 1 0
0.137583 0.611295 0.611295 1 1 0
0.137588 0.611305 0.611305 1 1 0
0.137594 0.611316 0.611316 1 1 0
0.137599 0.611327 0.611327 1 1 0
0.137604 0.611338 0.611338 1 1 0
0.137609 0.611349 0.611349 1 1 0
0.137614 0.61136 0.61136 1 1 0
0.137619 0.611371 0.611371 1 1 0
0.137624 0.611382 0.611382 1 1 0
0.137629 0.611393 0.611393 1 1 0
0.137634 0.611404 0.611404 1 1 0
0.137639 0.611415 0.611415 1 1 0
0.137645 0.611426 0.611426 1 1 0
0.13765 0.611437 0.611437 1 1 0
0.137655 0.611448 0.611448 1 1 0
0.13766 0.611459 0.611459 1 1 0
0.137665 0.61147 0.61147 1 1 0
0.13767 0.611481 0.611481 1 1 0
0.137675 0.611492 0.611492 1 1 0
0.13768 0.611503 0.611503 1 1 0
0.137685 0.611514 0.611514 1 1 0
0.13769 0.611525 0.611525 1 1 0
0.137696 0.611536 0.611536 1 1 0
0.137701 0.611547 0.611547 1 1 0
0.137706 0.611557 0.611557 1 1 0
0.137711 0.611568 0.611568 1 1 0
0.137716 0.611579 0.611579 1 1 0
0.137721 0.61159 0.61159 1 1 0
0.137726 0.611601 0.611601 1 1 0
0.137731 0.611612 0.611612 1 1 0
0.137737 0.611623 0.611623 1 1 0
0.137742 0.611634 0.611634 1 1 0
0.137747 0.611645 0.611645 1 1 0
0.137752 0.611656 0.611656 1 1 0
0.137757 0.611667 0.611667 1 1 0
0.137762 0.611678 0.611678 1 1 0
0.137767 0.611689 0.611689 1 1 0
0.137772 0.6117 0.6117 1 1 0
0.137777 0.611711 0.611711 1 1 0
0.137783 0.611722 0.611722 1 1 0
0.137788 0.611733 0.611733 1 1 0
0.137793 0.611744 0.611744 1 1 0
0.137798 0.611755 0.611755 1 1 0
0.137803 0.611766 0.611766 1 1 0
0.137808 0.611777 0.611777 1 1 0
0.137813 0.611788 0.611788 1 1 0
0.137818 0.611799 0.611799 1 1 0
0.137824 0.611809 0.611809 1 1 0
0.137829 0.61182 0.61182 1 1 0
0.137834 0.611831 0.611831 1 1 0
0.137839 0.611842 0.611842 1 1 0
0.137844 0.611853 0.611853 1 1 0
0.137849 0.611864 0.611864 1 1 0
0.137854 0.611875 0.611875 1 1 0
0.13786 0.611886 0.611886 1 1 0
0.137865 0.611897 0.611897 1 1 0
0.13787 0.611908 0.611908 1 1 0
0.137875 0.611919 0.611919 1 1 0
0.13788 0.61193 0.61193 1 1 0
0.137885 0.611941 0.611941 1 1 0
0.13789 0.611952 0.611952 1 1 0
0.137896 0.611963 0.611963 1 1 0
0.137901 0.611974 0.611974 1 1 0
0.137906 0.611985 0.611985 1 1 0
