0.122969 430.587 430.587 1 1 0
0.122972 430.583 430.583 1 1 0
0.122975 430.579 430.579 1 1 0
0.122978 430.575 430.575 1 1 0
0.122981 430.572 430.572 1 1 0
0.122985 430.568 430.568 1 1 0
0.122988 430.564 430.564 1 1 0
0.122991 430.561 430.561 1 1 0
0.122994 430.557 430.557 1 1 0
0.122998 430.553 430.553 1 1 0
0.123001 430.549 430.549 1 1 0
0.123004 430.546 430.546 1 1 0
0.123007 430.542 430.542 1 1 0
0.123011 430.538 430.538 1 1 0
0.123014 430.534 430.534 1 1 0
0.123017 430.531 430.531 1 1 0
0.12302 430.527 430.527 1 1 0
0.123023 430.523 430.523 1 1 0
0.123027 430.52 430.52 1 1 0
0.12303 430.516 430.516 1 1 0
0.123033 430.512 430.512 1 1 0
0.123036 430.508 430.508 1 1 0
0.12304 430.505 430.505 1 1 0
0.123043 430.501 430.501 1 1 0
0.123046 430.497 430.497 1 1 0
0.123049 430.493 430.493 1 1 0
0.123053 430.49 430.49 1 1 0
0.123056 430.486 430.486 1 1 0
0.123059 430.482 430.482 1 1 0
0.123062 430.478 430.478 1 1 0
0.123066 430.475 430.475 1 1 0
0.123069 430.471 430.471 1 1 0
0.123072 430.467 430.467 1 1 0
0.123075 430.463 430.463 1 1 0
0.123078 430.46 430.46 1 1 0
0.123082 430.456 430.456 1 1 0
0.123085 430.452 430.452 1 1 0
0.123088 430.448 430.448 1 1 0
0.123091 430.445 430.445 1 1 0
0.123095 430.441 430.441 1 1 0
0.123098 430.437 430.437 1 1 0
0.123101 430.433 430.433 1 1 0
0.123104 430.43 430.43 1 1 0
0.123108 430.426 430.426 1 1 0
0.123111 430.422 430.422 1 1 0
0.123114 430.418 430.418 1 1 0
0.123117 430.415 430.415 1 1 0
0.123121 430.411 430.411 1 1 0
0.123124 430.407 430.407 1 1 0
0.123127 430.403 430.403 1 1 0
0.12313 430.4 430.4 1 1 0
0.123134 430.396 430.396 1 1 0
0.123137 430.392 430.392 1 1 0
0.12314 430.388 430.388 1 1 0
0.123143 430.385 430.385 1 1 0
0.123147 430.381 430.381 1 1 0
0.12315 430.377 430.377 1 1 0
0.123153 430.373 430.373 1 1 0
0.123156 430.37 430.37 1 1 0
0.12316 430.366 430.366 1 1 0
0.123163 430.362 430.362 1 1 0
0.123166 430.358 430.358 1 1 0
0.123169 430.354 430.354 1 1 0
0.123173 430.351 430.351 1 1 0
0.123176 430.347 430.347 1 1 0
0.123179 430.343 430.343 1 1 0
0.123182 430.339 430.339 1 1 0
0.123186 430.336 430.336 1 1 0
0.123189 430.332 430.332 1 1 0
0.123192 430.328 430.328 1 1 0
0.123195 430.324 430.324 1 1 0
0.123199 430.32 430.32 1 1 0
0.123202 430.317 430.317 1 1 0
0.123205 430.313 430.313 1 1 0
0.123208 430.309 430.309 1 1 0
0.123212 430.305 430.305 1 1 0
0.123215 430.301 430.301 1 1 0
0.123218 430.298 430.298 1 1 0
0.123221 430.294 430.294 1 1 0
0.123225 430.29 430.29 1 1 0
0.123228 430.286 430.286 1 1 0
0.123231 430.282 430.282 1 1 0
0.123234 430.279 430.279 1 1 0
0.123238 430.275 430.275 1 1 0
0.123241 430.271 430.271 1 1 0
0.123244 430.267 430.267 1 1 0
0.123247 430.263 430.263 1 1 0
0.123251 430.26 430.26 1 1 0
0.123254 430.256 430.256 1 1 0
0.123257 430.252 430.252 1 1 0
0.12326 430.248 430.248 1 1 0
0.123264 430.244 430.244 1 1 0
0.123267 430.241 430.241 1 1 0
0.12327 430.237 430.237 1 1 0
0.123273 430.233 430.233 1 1 0
0.123277 430.229 430.229 1 1 0
0.12328 430.225 430.225 1 1 0
0.123283 430.222 430.222 1 1 0
0.123286 430.218 430.218 1 1 0
0.12329 430.214 430.214 1 1 0
0.123293 430.21 430.21 1 1 0
0.123296 430.206 430.206 1 1 0
0.123299 430.203 430.203 1 1 0
0.123303 430.199 430.199 1 1 0
0.123306 430.195 430.195 1 1 0
0.123309 430.191 430.191 1 1 0
0.123313 430.187 430.187 1 1 0
0.123316 430.183 430.183 1 1 0
0.123319 430.18 430.18 1 1 0
0.123322 430.176 430.176 1 1 0
0.123326 430.172 430.172 1 1 0
0.123329 430.168 430.168 1 1 0
0.123332 430.164 430.164 1 1 0
0.123335 430.16 430.16 1 1 0
0.123339 430.157 430.157 1 1 0
0.123342 430.153 430.153 1 1 0
0.123345 430.149 430.149 1 1 0
0.123348 430.145 430.145 1 1 0
0.123352 430.141 430.141 1 1 0
0.123355 430.137 430.137 1 1 0
0.123358 430.134 430.134 1 1 0
0.123361 430.13 430.13 1 1 0
0.123365 430.126 430.126 1 1 0
0.123368 430.122 430.122 1 1 0
0.123371 430.118 430.118 1 1 0
0.123375 430.114 430.114 1 1 0
0.123378 430.111 430.111 1 1 0
0.123381 430.107 430.107 1 1 0
0.123384 430.103 430.103 1 1 0
0.123388 430.099 430.099 1 1 0
0.123391 430.095 430.095 1 1 0
0.123394 430.091 430.091 1 1 0
0.123397 430.087 430.087 1 1 0
0.123401 430.084 430.084 1 1 0
0.123404 430.08 430.08 1 1 0
0.123407 430.076 430.076 1 1 0
0.12341 430.072 430.072 1 1 0
0.123414 430.068 430.068 1 1 0
0.123417 430.064 430.064 1 1 0
0.12342 430.06 430.06 1 1 0
0.123424 430.057 430.057 1 1 0
0.123427 430.053 430.053 1 1 0
0.12343 430.049 430.049 1 1 0
0.123433 430.045 430.045 1 1 0
0.123437 430.041 430.041 1 1 0
0.12344 430.037 430.037 1 1 0
0.123443 430.033 430.033 1 1 0
0.123446 430.03 430.03 1 1 0
0.12345 430.026 430.026 1 1 0
0.123453 430.022 430.022 1 1 0
0.123456 430.018 430.018 1 1 0
0.12346 430.014 430.014 1 1 0
0.123463 430.01 430.01 1 1 0
0.123466 430.006 430.006 1 1 0
0.123469 430.002 430.002 1 1 0
0.123473 429.999 429.999 1 1 0
0.123476 429.995 429.995 1 1 0
0.123479 429.991 429.991 1 1 0
0.123483 429.987 429.987 1 1 0
0.123486 429.983 429.983 1 1 0
0.123489 429.979 429.979 1 1 0
0.123492 429.975 429.975 1 1 0
0.123496 429.971 429.971 1 1 0
0.123499 429.968 429.968 1 1 0
0.123502 429.964 429.964 1 1 0
0.123505 429.96 429.96 1 1 0
0.123509 429.956 429.956 1 1 0
0.123512 429.952 429.952 1 1 0
0.123515 429.948 429.948 1 1 0
0.123519 429.944 429.944 1 1 0
0.123522 429.94 429.94 1 1 0
0.123525 429.936 429.936 1 1 0
0.123528 429.933 429.933 1 1 0
0.123532 429.929 429.929 1 1 0
0.123535 429.925 429.925 1 1 0
0.123538 429.921 429.921 1 1 0
0.123542 429.917 429.917 1 1 0
0.123545 429.913 429.913 1 1 0
0.123548 429.909 429.909 1 1 0
0.123551 429.905 429.905 1 1 0
0.123555 429.901 429.901 1 1 0
0.123558 429.897 429.897 1 1 0
0.123561 429.894 429.894 1 1 0
0.123565 429.89 429.89 1 1 0
0.123568 429.886 429.886 1 1 0
0.123571 429.882 429.882 1 1 0
0.123574 429.878 429.878 1 1 0
0.123578 429.874 429.874 1 1 0
0.123581 429.87 429.87 1 1 0
0.123584 429.866 429.866 1 1 0
0.123588 429.862 429.862 1 1 0
0.123591 429.858 429.858 1 1 0
0.123594 429.854 429.854 1 1 0
0.123597 429.851 429.851 1 1 0
0.123601 429.847 429.847 1 1 0
0.123604 429.843 429.843 1 1 0
0.123607 429.839 429.839 1 1 0
0.123611 429.835 429.835 1 1 0
0.123614 429.831 429.831 1 1 0
0.123617 429.827 429.827 1 1 0
0.12362 429.823 429.823 1 1 0
0.123624 429.819 429.819 1 1 0
0.123627 429.815 429.815 1 1 0
0.12363 429.811 429.811 1 1 0
0.123634 429.807 429.807 1 1 0
0.123637 429.803 429.803 1 1 0
0.12364 429.8 429.8 1 1 0
0.123643 429.796 429.796 1 1 0
0.123647 429.792 429.792 1 1 0
0.12365 429.788 429.788 1 1 0
0.123653 429.784 429.784 1 1 0
0.123657 429.78 429.78 1 1 0
0.12366 429.776 429.776 1 1 0
0.123663 429.772 429.772 1 1 0
0.123666 429.768 429.768 1 1 0
0.12367 429.764 429.764 1 1 0
0.123673 429.76 429.76 1 1 0
0.123676 429.756 429.756 1 1 0
0.12368 429.752 429.752 1 1 0
0.123683 429.748 429.748 1 1 0
0.123686 429.744 429.744 1 1 0
0.12369 429.74 429.74 1 1 0
0.123693 429.736 429.736 1 1 0
0.123696 429.733 429.733 1 1 0
0.123699 429.729 429.729 1 1 0
0.123703 429.725 429.725 1 1 0
0.123706 429.721 429.721 1 1 0
0.123709 429.717 429.717 1 1 0
0.123713 429.713 429.713 1 1 0
0.123716 429.709 429.709 1 1 0
0.123719 429.705 429.705 1 1 0
0.123723 429.701 429.701 1 1 0
0.123726 429.697 429.697 1 1 0
0.123729 429.693 429.693 1 1 0
0.123732 429.689 429.689 1 1 0
0.123736 429.685 429.685 1 1 0
0.123739 429.681 429.681 1 1 0
0.123742 429.677 429.677 1 1 0
0.123746 429.673 429.673 1 1 0
0.123749 429.669 429.669 1 1 0
0.123752 429.665 429.665 1 1 0
0.123756 429.661 429.661 1 1 0
0.123759 429.657 429.657 1 1 0
0.123762 429.653 429.653 1 1 0
0.123765 429.649 429.649 1 1 0
0.123769 429.645 429.645 1 1 0
0.123772 429.641 429.641 1 1 0
0.123775 429.637 429.637 1 1 0
0.123779 429.633 429.633 1 1 0
0.123782 429.629 429.629 1 1 0
0.123785 429.625 429.625 1 1 0
0.123789 429.621 429.621 1 1 0
0.123792 429.617 429.617 1 1 0
0.123795 429.614 429.614 1 1 0
0.123799 429.61 429.61 1 1 0
0.123802 429.606 429.606 1 1 0
0.123805 429.602 429.602 1 1 0
0.123808 429.598 429.598 1 1 0
0.123812 429.594 429.594 1 1 0
0.123815 429.59 429.59 1 1 0
0.123818 429.586 429.586 1 1 0
0.123822 429.582 429.582 1 1 0
0.123825 429.578 429.578 1 1 0
0.123828 429.574 429.574 1 1 0
0.123832 429.57 429.57 1 1 0
0.123835 429.566 429.566 1 1 0
0.123838 429.562 429.562 1 1 0
0.123842 429.558 429.558 1 1 0
0.123845 429.554 429.554 1 1 0
0.123848 429.55 429.55 1 1 0
0.123851 429.546 429.546 1 1 0
0.123855 429.542 429.542 1 1 0
0.123858 429.538 429.538 1 1 0
0.123861 429.534 429.534 1 1 0
0.123865 429.53 429.53 1 1 0
0.123868 429.526 429.526 1 1 0
0.123871 429.522 429.522 1 1 0
0.123875 429.518 429.518 1 1 0
0.123878 429.514 429.514 1 1 0
0.123881 429.51 429.51 1 1 0
0.123885 429.506 429.506 1 1 0
0.123888 429.502 429.502 1 1 0
0.123891 429.497 429.497 1 1 0
0.123895 429.493 429.493 1 1 0
0.123898 429.489 429.489 1 1 0
0.123901 429.485 429.485 1 1 0
0.123904 429.481 429.481 1 1 0
0.123908 429.477 429.477 1 1 0
0.123911 429.473 429.473 1 1 0
0.123914 429.469 429.469 1 1 0
0.123918 429.465 429.465 1 1 0
0.123921 429.461 429.461 1 1 0
0.123924 429.457 429.457 1 1 0
0.123928 429.453 429.453 1 1 0
0.123931 429.449 429.449 1 1 0
0.123934 429.445 429.445 1 1 0
0.123938 429.441 429.441 1 1 0
0.123941 429.437 429.437 1 1 0
0.123944 429.433 429.433 1 1 0
0.123948 429.429 429.429 1 1 0
0.123951 429.425 429.425 1 1 0
0.123954 429.421 429.421 1 1 0
0.123958 429.417 429.417 1 1 0
0.123961 429.413 429.413 1 1 0
0.123964 429.409 429.409 1 1 0
0.123968 429.405 429.405 1 1 0
0.123971 429.401 429.401 1 1 0
0.123974 429.397 429.397 1 1 0
0.123978 429.393 429.393 1 1 0
0.123981 429.389 429.389 1 1 0
0.123984 429.385 429.385 1 1 0
0.123987 429.381 429.381 1 1 0
0.123991 429.377 429.377 1 1 0
0.123994 429.372 429.372 1 1 0
0.123997 429.368 429.368 1 1 0
0.124001 429.364 429.364 1 1 0
0.124004 429.36 429.36 1 1 0
0.124007 429.356 429.356 1 1 0
0.124011 429.352 429.352 1 1 0
0.124014 429.348 429.348 1 1 0
0.124017 429.344 429.344 1 1 0
0.124021 429.34 429.34 1 1 0
0.124024 429.336 429.336 1 1 0
0.124027 429.332 429.332 1 1 0
0.124031 429.328 429.328 1 1 0
0.124034 429.324 429.324 1 1 0
0.124037 429.32 429.32 1 1 0
0.124041 429.316 429.316 1 1 0
0.124044 429.312 429.312 1 1 0
0.124047 429.307 429.307 1 1 0
0.124051 429.303 429.303 1 1 0
0.124054 429.299 429.299 1 1 0
0.124057 429.295 429.295 1 1 0
0.124061 429.291 429.291 1 1 0
0.124064 429.287 429.287 1 1 0
0.124067 429.283 429.283 1 1 0
0.124071 429.279 429.279 1 1 0
0.124074 429.275 429.275 1 1 0
0.124077 429.271 429.271 1 1 0
0.124081 429.267 429.267 1 1 0
0.124084 429.263 429.263 1 1 0
0.124087 429.259 429.259 1 1 0
0.124091 429.254 429.254 1 1 0
0.124094 429.25 429.25 1 1 0
0.124097 429.246 429.246 1 1 0
0.124101 429.242 429.242 1 1 0
0.124104 429.238 429.238 1 1 0
0.124107 429.234 429.234 1 1 0
0.124111 429.23 429.23 1 1 0
0.124114 429.226 429.226 1 1 0
0.124117 429.222 429.222 1 1 0
0.124121 429.218 429.218 1 1 0
0.124124 429.214 429.214 1 1 0
0.124127 429.21 429.21 1 1 0
0.124131 429.205 429.205 1 1 0
0.124134 429.201 429.201 1 1 0
0.124137 429.197 429.197 1 1 0
0.124141 429.193 429.193 1 1 0
0.124144 429.189 429.189 1 1 0
0.124147 429.185 429.185 1 1 0
0.124151 429.181 429.181 1 1 0
0.124154 429.177 429.177 1 1 0
0.124157 429.173 429.173 1 1 0
0.124161 429.168 429.168 1 1 0
0.124164 429.164 429.164 1 1 0
0.124167 429.16 429.16 1 1 0
0.124171 429.156 429.156 1 1 0
0.124174 429.152 429.152 1 1 0
0.124178 429.148 429.148 1 1 0
0.124181 429.144 429.144 1 1 0
0.124184 429.14 429.14 1 1 0
0.124188 429.136 429.136 1 1 0
0.124191 429.131 429.131 1 1 0
0.124194 429.127 429.127 1 1 0
0.124198 429.123 429.123 1 1 0
0.124201 429.119 429.119 1 1 0
0.124204 429.115 429.115 1 1 0
0.124208 429.111 429.111 1 1 0
0.124211 429.107 429.107 1 1 0
0.124214 429.103 429.103 1 1 0
0.124218 429.098 429.098 1 1 0
0.124221 429.094 429.094 1 1 0
0.124224 429.09 429.09 1 1 0
0.124228 429.086 429.086 1 1 0
0.124231 429.082 429.082 1 1 0
0.124234 429.078 429.078 1 1 0
0.124238 429.074 429.074 1 1 0
0.124241 429.07 429.07 1 1 0
0.124244 429.065 429.065 1 1 0
0.124248 429.061 429.061 1 1 0
0.124251 429.057 429.057 1 1 0
0.124254 429.053 429.053 1 1 0
0.124258 429.049 429.049 1 1 0
0.124261 429.045 429.045 1 1 0
0.124265 429.041 429.041 1 1 0
0.124268 429.036 429.036 1 1 0
0.124271 429.032 429.032 1 1 0
0.124275 429.028 429.028 1 1 0
0.124278 429.024 429.024 1 1 0
0.124281 429.02 429.02 1 1 0
0.124285 429.016 429.016 1 1 0
0.124288 429.012 429.012 1 1 0
0.124291 429.007 429.007 1 1 0
0.124295 429.003 429.003 1 1 0
0.124298 428.999 428.999 1 1 0
0.124301 428.995 428.995 1 1 0
0.124305 428.991 428.991 1 1 0
0.124308 428.987 428.987 1 1 0
0.124311 428.982 428.982 1 1 0
0.124315 428.978 428.978 1 1 0
0.124318 428.974 428.974 1 1 0
0.124322 428.97 428.97 1 1 0
0.124325 428.966 428.966 1 1 0
0.124328 428.962 428.962 1 1 0
0.124332 428.957 428.957 1 1 0
0.124335 428.953 428.953 1 1 0
0.124338 428.949 428.949 1 1 0
0.124342 428.945 428.945 1 1 0
0.124345 428.941 428.941 1 1 0
0.124348 428.937 428.937 1 1 0
0.124352 428.932 428.932 1 1 0
0.124355 428.928 428.928 1 1 0
0.124358 428.924 428.924 1 1 0
0.124362 428.92 428.92 1 1 0
0.124365 428.916 428.916 1 1 0
0.124369 428.912 428.912 1 1 0
0.124372 428.907 428.907 1 1 0
0.124375 428.903 428.903 1 1 0
0.124379 428.899 428.899 1 1 0
0.124382 428.895 428.895 1 1 0
0.124385 428.891 428.891 1 1 0
0.124389 428.886 428.886 1 1 0
0.124392 428.882 428.882 1 1 0
0.124395 428.878 428.878 1 1 0
0.124399 428.874 428.874 1 1 0
0.124402 428.87 428.87 1 1 0
0.124406 428.866 428.866 1 1 0
0.124409 428.861 428.861 1 1 0
0.124412 428.857 428.857 1 1 0
0.124416 428.853 428.853 1 1 0
0.124419 428.849 428.849 1 1 0
0.124422 428.845 428.845 1 1 0
0.124426 428.84 428.84 1 1 0
0.124429 428.836 428.836 1 1 0
0.124433 428.832 428.832 1 1 0
0.124436 428.828 428.828 1 1 0
0.124439 428.824 428.824 1 1 0
0.124443 428.819 428.819 1 1 0
0.124446 428.815 428.815 1 1 0
0.124449 428.811 428.811 1 1 0
0.124453 428.807 428.807 1 1 0
0.124456 428.803 428.803 1 1 0
0.124459 428.798 428.798 1 1 0
0.124463 428.794 428.794 1 1 0
0.124466 428.79 428.79 1 1 0
0.12447 428.786 428.786 1 1 0
0.124473 428.781 428.781 1 1 0
0.124476 428.777 428.777 1 1 0
0.12448 428.773 428.773 1 1 0
0.124483 428.769 428.769 1 1 0
0.124486 428.765 428.765 1 1 0
0.12449 428.76 428.76 1 1 0
0.124493 428.756 428.756 1 1 0
0.124497 428.752 428.752 1 1 0
0.1245 428.748 428.748 1 1 0
0.124503 428.743 428.743 1 1 0
0.124507 428.739 428.739 1 1 0
0.12451 428.735 428.735 1 1 0
0.124513 428.731 428.731 1 1 0
0.124517 428.727 428.727 1 1 0
0.12452 428.722 428.722 1 1 0
0.124524 428.718 428.718 1 1 0
0.124527 428.714 428.714 1 1 0
0.12453 428.71 428.71 1 1 0
0.124534 428.705 428.705 1 1 0
0.124537 428.701 428.701 1 1 0
0.12454 428.697 428.697 1 1 0
0.124544 428.693 428.693 1 1 0
0.124547 428.688 428.688 1 1 0
0.124551 428.684 428.684 1 1 0
0.124554 428.68 428.68 1 1 0
0.124557 428.676 428.676 1 1 0
0.124561 428.671 428.671 1 1 0
0.124564 428.667 428.667 1 1 0
0.124567 428.663 428.663 1 1 0
0.124571 428.659 428.659 1 1 0
0.124574 428.654 428.654 1 1 0
0.124578 428.65 428.65 1 1 0
0.124581 428.646 428.646 1 1 0
0.124584 428.642 428.642 1 1 0
0.124588 428.637 428.637 1 1 0
0.124591 428.633 428.633 1 1 0
0.124595 428.629 428.629 1 1 0
0.124598 428.625 428.625 1 1 0
0.124601 428.62 428.62 1 1 0
0.124605 428.616 428.616 1 1 0
0.124608 428.612 428.612 1 1 0
0.124611 428.608 428.608 1 1 0
0.124615 428.603 428.603 1 1 0
0.124618 428.599 428.599 1 1 0
0.124622 428.595 428.595 1 1 0
0.124625 428.591 428.591 1 1 0
0.124628 428.586 428.586 1 1 0
0.124632 428.582 428.582 1 1 0
0.124635 428.578 428.578 1 1 0
0.124639 428.573 428.573 1 1 0
0.124642 428.569 428.569 1 1 0
0.124645 428.565 428.565 1 1 0
0.124649 428.561 428.561 1 1 0
0.124652 428.556 428.556 1 1 0
0.124655 428.552 428.552 1 1 0
0.124659 428.548 428.548 1 1 0
0.124662 428.544 428.544 1 1 0
0.124666 428.539 428.539 1 1 0
0.124669 428.535 428.535 1 1 0
0.124672 428.531 428.531 1 1 0
0.124676 428.526 428.526 1 1 0
0.124679 428.522 428.522 1 1 0
0.124683 428.518 428.518 1 1 0
0.124686 428.514 428.514 1 1 0
0.124689 428.509 428.509 1 1 0
0.124693 428.505 428.505 1 1 0
0.124696 428.501 428.501 1 1 0
0.1247 428.496 428.496 1 1 0
0.124703 428.492 428.492 1 1 0
0.124706 428.488 428.488 1 1 0
0.12471 428.483 428.483 1 1 0
0.124713 428.479 428.479 1 1 0
0.124717 428.475 428.475 1 1 0
0.12472 428.471 428.471 1 1 0
0.124723 428.466 428.466 1 1 0
0.124727 428.462 428.462 1 1 0
0.12473 428.458 428.458 1 1 0
0.124734 428.453 428.453 1 1 0
0.124737 428.449 428.449 1 1 0
0.12474 428.445 428.445 1 1 0
0.124744 428.44 428.44 1 1 0
0.124747 428.436 428.436 1 1 0
0.12475 428.432 428.432 1 1 0
0.124754 428.428 428.428 1 1 0
0.124757 428.423 428.423 1 1 0
0.124761 428.419 428.419 1 1 0
0.124764 428.415 428.415 1 1 0
0.124767 428.41 428.41 1 1 0
0.124771 428.406 428.406 1 1 0
0.124774 428.402 428.402 1 1 0
0.124778 428.397 428.397 1 1 0
0.124781 428.393 428.393 1 1 0
0.124785 428.389 428.389 1 1 0
0.124788 428.384 428.384 1 1 0
0.124791 428.38 428.38 1 1 0
0.124795 428.376 428.376 1 1 0
0.124798 428.371 428.371 1 1 0
0.124802 428.367 428.367 1 1 0
0.124805 428.363 428.363 1 1 0
0.124808 428.358 428.358 1 1 0
0.124812 428.354 428.354 1 1 0
0.124815 428.35 428.35 1 1 0
0.124819 428.345 428.345 1 1 0
0.124822 428.341 428.341 1 1 0
0.124825 428.337 428.337 1 1 0
0.124829 428.332 428.332 1 1 0
0.124832 428.328 428.328 1 1 0
0.124836 428.324 428.324 1 1 0
0.124839 428.319 428.319 1 1 0
0.124842 428.315 428.315 1 1 0
0.124846 428.311 428.311 1 1 0
0.124849 428.306 428.306 1 1 0
0.124853 428.302 428.302 1 1 0
0.124856 428.298 428.298 1 1 0
0.124859 428.293 428.293 1 1 0
0.124863 428.289 428.289 1 1 0
0.124866 428.285 428.285 1 1 0
0.12487 428.28 428.28 1 1 0
0.124873 428.276 428.276 1 1 0
0.124876 428.271 428.271 1 1 0
0.12488 428.267 428.267 1 1 0
0.124883 428.263 428.263 1 1 0
0.124887 428.258 428.258 1 1 0
0.12489 428.254 428.254 1 1 0
0.124894 428.25 428.25 1 1 0
0.124897 428.245 428.245 1 1 0
0.1249 428.241 428.241 1 1 0
0.124904 428.237 428.237 1 1 0
0.124907 428.232 428.232 1 1 0
0.124911 428.228 428.228 1 1 0
0.124914 428.223 428.223 1 1 0
0.124917 428.219 428.219 1 1 0
0.124921 428.215 428.215 1 1 0
0.124924 428.21 428.21 1 1 0
0.124928 428.206 428.206 1 1 0
0.124931 428.202 428.202 1 1 0
0.124935 428.197 428.197 1 1 0
0.124938 428.193 428.193 1 1 0
0.124941 428.188 428.188 1 1 0
0.124945 428.184 428.184 1 1 0
0.124948 428.18 428.18 1 1 0
0.124952 428.175 428.175 1 1 0
0.124955 428.171 428.171 1 1 0
0.124958 428.167 428.167 1 1 0
0.124962 428.162 428.162 1 1 0
0.124965 428.158 428.158 1 1 0
0.124969 428.153 428.153 1 1 0
0.124972 428.149 428.149 1 1 0
0.124976 428.145 428.145 1 1 0
0.124979 428.14 428.14 1 1 0
0.124982 428.136 428.136 1 1 0
0.124986 428.131 428.131 1 1 0
0.124989 428.127 428.127 1 1 0
0.124993 428.123 428.123 1 1 0
0.124996 428.118 428.118 1 1 0
0.124999 428.114 428.114 1 1 0
0.125003 428.109 428.109 1 1 0
0.125006 428.105 428.105 1 1 0
0.12501 428.101 428.101 1 1 0
0.125013 428.096 428.096 1 1 0
0.125017 428.092 428.092 1 1 0
0.12502 428.087 428.087 1 1 0
0.125023 428.083 428.083 1 1 0
0.125027 428.079 428.079 1 1 0
0.12503 428.074 428.074 1 1 0
0.125034 428.07 428.07 1 1 0
0.125037 428.065 428.065 1 1 0
0.125041 428.061 428.061 1 1 0
0.125044 428.057 428.057 1 1 0
0.125047 428.052 428.052 1 1 0
0.125051 428.048 428.048 1 1 0
0.125054 428.043 428.043 1 1 0
0.125058 428.039 428.039 1 1 0
0.125061 428.034 428.034 1 1 0
0.125065 428.03 428.03 1 1 0
0.125068 428.026 428.026 1 1 0
0.125071 428.021 428.021 1 1 0
0.125075 428.017 428.017 1 1 0
0.125078 428.012 428.012 1 1 0
0.125082 428.008 428.008 1 1 0
0.125085 428.003 428.003 1 1 0
0.125089 427.999 427.999 1 1 0
0.125092 427.995 427.995 1 1 0
0.125095 427.99 427.99 1 1 0
0.125099 427.986 427.986 1 1 0
0.125102 427.981 427.981 1 1 0
0.125106 427.977 427.977 1 1 0
0.125109 427.972 427.972 1 1 0
0.125113 427.968 427.968 1 1 0
0.125116 427.964 427.964 1 1 0
0.12512 427.959 427.959 1 1 0
0.125123 427.955 427.955 1 1 0
0.125126 427.95 427.95 1 1 0
0.12513 427.946 427.946 1 1 0
0.125133 427.941 427.941 1 1 0
0.125137 427.937 427.937 1 1 0
0.12514 427.932 427.932 1 1 0
0.125144 427.928 427.928 1 1 0
0.125147 427.923 427.923 1 1 0
0.12515 427.919 427.919 1 1 0
0.125154 427.915 427.915 1 1 0
0.125157 427.91 427.91 1 1 0
0.125161 427.906 427.906 1 1 0
0.125164 427.901 427.901 1 1 0
0.125168 427.897 427.897 1 1 0
0.125171 427.892 427.892 1 1 0
0.125175 427.888 427.888 1 1 0
0.125178 427.883 427.883 1 1 0
0.125181 427.879 427.879 1 1 0
0.125185 427.874 427.874 1 1 0
0.125188 427.87 427.87 1 1 0
0.125192 427.865 427.865 1 1 0
0.125195 427.861 427.861 1 1 0
0.125199 427.857 427.857 1 1 0
0.125202 427.852 427.852 1 1 0
0.125205 427.848 427.848 1 1 0
0.125209 427.843 427.843 1 1 0
0.125212 427.839 427.839 1 1 0
0.125216 427.834 427.834 1 1 0
0.125219 427.83 427.83 1 1 0
0.125223 427.825 427.825 1 1 0
0.125226 427.821 427.821 1 1 0
0.12523 427.816 427.816 1 1 0
0.125233 427.812 427.812 1 1 0
0.125237 427.807 427.807 1 1 0
0.12524 427.803 427.803 1 1 0
0.125243 427.798 427.798 1 1 0
0.125247 427.794 427.794 1 1 0
0.12525 427.789 427.789 1 1 0
0.125254 427.785 427.785 1 1 0
0.125257 427.78 427.78 1 1 0
0.125261 427.776 427.776 1 1 0
0.125264 427.771 427.771 1 1 0
0.125268 427.767 427.767 1 1 0
0.125271 427.762 427.762 1 1 0
0.125274 427.758 427.758 1 1 0
0.125278 427.753 427.753 1 1 0
0.125281 427.749 427.749 1 1 0
0.125285 427.744 427.744 1 1 0
0.125288 427.74 427.74 1 1 0
0.125292 427.735 427.735 1 1 0
0.125295 427.731 427.731 1 1 0
0.125299 427.726 427.726 1 1 0
0.125302 427.722 427.722 1 1 0
0.125306 427.717 427.717 1 1 0
0.125309 427.713 427.713 1 1 0
0.125312 427.708 427.708 1 1 0
0.125316 427.704 427.704 1 1 0
0.125319 427.699 427.699 1 1 0
0.125323 427.695 427.695 1 1 0
0.125326 427.69 427.69 1 1 0
0.12533 427.686 427.686 1 1 0
0.125333 427.681 427.681 1 1 0
0.125337 427.677 427.677 1 1 0
0.12534 427.672 427.672 1 1 0
0.125344 427.668 427.668 1 1 0
0.125347 427.663 427.663 1 1 0
0.12535 427.659 427.659 1 1 0
0.125354 427.654 427.654 1 1 0
0.125357 427.65 427.65 1 1 0
0.125361 427.645 427.645 1 1 0
0.125364 427.64 427.64 1 1 0
0.125368 427.636 427.636 1 1 0
0.125371 427.631 427.631 1 1 0
0.125375 427.627 427.627 1 1 0
0.125378 427.622 427.622 1 1 0
0.125382 427.618 427.618 1 1 0
0.125385 427.613 427.613 1 1 0
0.125389 427.609 427.609 1 1 0
0.125392 427.604 427.604 1 1 0
0.125395 427.6 427.6 1 1 0
0.125399 427.595 427.595 1 1 0
0.125402 427.591 427.591 1 1 0
0.125406 427.586 427.586 1 1 0
0.125409 427.581 427.581 1 1 0
0.125413 427.577 427.577 1 1 0
0.125416 427.572 427.572 1 1 0
0.12542 427.568 427.568 1 1 0
0.125423 427.563 427.563 1 1 0
0.125427 427.559 427.559 1 1 0
0.12543 427.554 427.554 1 1 0
0.125434 427.55 427.55 1 1 0
0.125437 427.545 427.545 1 1 0
0.12544 427.541 427.541 1 1 0
0.125444 427.536 427.536 1 1 0
0.125447 427.531 427.531 1 1 0
0.125451 427.527 427.527 1 1 0
0.125454 427.522 427.522 1 1 0
0.125458 427.518 427.518 1 1 0
0.125461 427.513 427.513 1 1 0
0.125465 427.509 427.509 1 1 0
0.125468 427.504 427.504 1 1 0
0.125472 427.499 427.499 1 1 0
0.125475 427.495 427.495 1 1 0
0.125479 427.49 427.49 1 1 0
0.125482 427.486 427.486 1 1 0
0.125486 427.481 427.481 1 1 0
0.125489 427.477 427.477 1 1 0
0.125493 427.472 427.472 1 1 0
0.125496 427.467 427.467 1 1 0
0.125499 427.463 427.463 1 1 0
0.125503 427.458 427.458 1 1 0
0.125506 427.454 427.454 1 1 0
0.12551 427.449 427.449 1 1 0
0.125513 427.445 427.445 1 1 0
0.125517 427.44 427.44 1 1 0
0.12552 427.435 427.435 1 1 0
0.125524 427.431 427.431 1 1 0
0.125527 427.426 427.426 1 1 0
0.125531 427.422 427.422 1 1 0
0.125534 427.417 427.417 1 1 0
0.125538 427.412 427.412 1 1 0
0.125541 427.408 427.408 1 1 0
0.125545 427.403 427.403 1 1 0
0.125548 427.399 427.399 1 1 0
0.125552 427.394 427.394 1 1 0
0.125555 427.389 427.389 1 1 0
0.125559 427.385 427.385 1 1 0
0.125562 427.38 427.38 1 1 0
0.125566 427.376 427.376 1 1 0
0.125569 427.371 427.371 1 1 0
0.125572 427.366 427.366 1 1 0
0.125576 427.362 427.362 1 1 0
0.125579 427.357 427.357 1 1 0
0.125583 427.353 427.353 1 1 0
0.125586 427.348 427.348 1 1 0
0.12559 427.343 427.343 1 1 0
0.125593 427.339 427.339 1 1 0
0.125597 427.334 427.334 1 1 0
0.1256 427.329 427.329 1 1 0
0.125604 427.325 427.325 1 1 0
0.125607 427.32 427.32 1 1 0
0.125611 427.316 427.316 1 1 0
0.125614 427.311 427.311 1 1 0
0.125618 427.306 427.306 1 1 0
0.125621 427.302 427.302 1 1 0
0.125625 427.297 427.297 1 1 0
0.125628 427.293 427.293 1 1 0
0.125632 427.288 427.288 1 1 0
0.125635 427.283 427.283 1 1 0
0.125639 427.279 427.279 1 1 0
0.125642 427.274 427.274 1 1 0
0.125646 427.269 427.269 1 1 0
0.125649 427.265 427.265 1 1 0
0.125653 427.26 427.26 1 1 0
0.125656 427.255 427.255 1 1 0
0.12566 427.251 427.251 1 1 0
0.125663 427.246 427.246 1 1 0
0.125667 427.242 427.242 1 1 0
0.12567 427.237 427.237 1 1 0
0.125674 427.232 427.232 1 1 0
0.125677 427.228 427.228 1 1 0
0.125681 427.223 427.223 1 1 0
0.125684 427.218 427.218 1 1 0
0.125688 427.214 427.214 1 1 0
0.125691 427.209 427.209 1 1 0
0.125695 427.204 427.204 1 1 0
0.125698 427.2 427.2 1 1 0
0.125702 427.195 427.195 1 1 0
0.125705 427.19 427.19 1 1 0
0.125709 427.186 427.186 1 1 0
0.125712 427.181 427.181 1 1 0
0.125716 427.176 427.176 1 1 0
0.125719 427.172 427.172 1 1 0
0.125723 427.167 427.167 1 1 0
0.125726 427.162 427.162 1 1 0
0.125729 427.158 427.158 1 1 0
0.125733 427.153 427.153 1 1 0
0.125736 427.148 427.148 1 1 0
0.12574 427.144 427.144 1 1 0
0.125743 427.139 427.139 1 1 0
0.125747 427.134 427.134 1 1 0
0.12575 427.13 427.13 1 1 0
0.125754 427.125 427.125 1 1 0
0.125757 427.12 427.12 1 1 0
0.125761 427.116 427.116 1 1 0
0.125764 427.111 427.111 1 1 0
0.125768 427.106 427.106 1 1 0
0.125771 427.102 427.102 1 1 0
0.125775 427.097 427.097 1 1 0
0.125778 427.092 427.092 1 1 0
0.125782 427.088 427.088 1 1 0
0.125785 427.083 427.083 1 1 0
0.125789 427.078 427.078 1 1 0
0.125793 427.074 427.074 1 1 0
0.125796 427.069 427.069 1 1 0
0.1258 427.064 427.064 1 1 0
0.125803 427.06 427.06 1 1 0
0.125807 427.055 427.055 1 1 0
0.12581 427.05 427.05 1 1 0
0.125814 427.045 427.045 1 1 0
0.125817 427.041 427.041 1 1 0
0.125821 427.036 427.036 1 1 0
0.125824 427.031 427.031 1 1 0
0.125828 427.027 427.027 1 1 0
0.125831 427.022 427.022 1 1 0
0.125835 427.017 427.017 1 1 0
0.125838 427.013 427.013 1 1 0
0.125842 427.008 427.008 1 1 0
0.125845 427.003 427.003 1 1 0
0.125849 426.998 426.998 1 1 0
0.125852 426.994 426.994 1 1 0
0.125856 426.989 426.989 1 1 0
0.125859 426.984 426.984 1 1 0
0.125863 426.98 426.98 1 1 0
0.125866 426.975 426.975 1 1 0
0.12587 426.97 426.97 1 1 0
0.125873 426.965 426.965 1 1 0
0.125877 426.961 426.961 1 1 0
0.12588 426.956 426.956 1 1 0
0.125884 426.951 426.951 1 1 0
0.125887 426.947 426.947 1 1 0
0.125891 426.942 426.942 1 1 0
0.125894 426.937 426.937 1 1 0
0.125898 426.932 426.932 1 1 0
0.125901 426.928 426.928 1 1 0
0.125905 426.923 426.923 1 1 0
0.125908 426.918 426.918 1 1 0
0.125912 426.914 426.914 1 1 0
0.125915 426.909 426.909 1 1 0
0.125919 426.904 426.904 1 1 0
0.125922 426.899 426.899 1 1 0
0.125926 426.895 426.895 1 1 0
0.125929 426.89 426.89 1 1 0
0.125933 426.885 426.885 1 1 0
0.125936 426.88 426.88 1 1 0
0.12594 426.876 426.876 1 1 0
0.125943 426.871 426.871 1 1 0
0.125947 426.866 426.866 1 1 0
0.125951 426.861 426.861 1 1 0
0.125954 426.857 426.857 1 1 0
0.125958 426.852 426.852 1 1 0
0.125961 426.847 426.847 1 1 0
0.125965 426.842 426.842 1 1 0
0.125968 426.838 426.838 1 1 0
0.125972 426.833 426.833 1 1 0
0.125975 426.828 426.828 1 1 0
0.125979 426.823 426.823 1 1 0
0.125982 426.819 426.819 1 1 0
0.125986 426.814 426.814 1 1 0
0.125989 426.809 426.809 1 1 0
0.125993 426.804 426.804 1 1 0
0.125996 426.8 426.8 1 1 0
0.126 426.795 426.795 1 1 0
0.126003 426.79 426.79 1 1 0
0.126007 426.785 426.785 1 1 0
0.12601 426.781 426.781 1 1 0
0.126014 426.776 426.776 1 1 0
0.126017 426.771 426.771 1 1 0
0.126021 426.766 426.766 1 1 0
0.126025 426.761 426.761 1 1 0
0.126028 426.757 426.757 1 1 0
0.126032 426.752 426.752 1 1 0
0.126035 426.747 426.747 1 1 0
0.126039 426.742 426.742 1 1 0
0.126042 426.738 426.738 1 1 0
0.126046 426.733 426.733 1 1 0
0.126049 426.728 426.728 1 1 0
0.126053 426.723 426.723 1 1 0
0.126056 426.718 426.718 1 1 0
0.12606 426.714 426.714 1 1 0
0.126063 426.709 426.709 1 1 0
0.126067 426.704 426.704 1 1 0
0.12607 426.699 426.699 1 1 0
0.126074 426.694 426.694 1 1 0
0.126077 426.69 426.69 1 1 0
0.126081 426.685 426.685 1 1 0
0.126085 426.68 426.68 1 1 0
0.126088 426.675 426.675 1 1 0
0.126092 426.671 426.671 1 1 0
0.126095 426.666 426.666 1 1 0
0.126099 426.661 426.661 1 1 0
0.126102 426.656 426.656 1 1 0
0.126106 426.651 426.651 1 1 0
0.126109 426.647 426.647 1 1 0
0.126113 426.642 426.642 1 1 0
0.126116 426.637 426.637 1 1 0
0.12612 426.632 426.632 1 1 0
0.126123 426.627 426.627 1 1 0
0.126127 426.622 426.622 1 1 0
0.126131 426.618 426.618 1 1 0
0.126134 426.613 426.613 1 1 0
0.126138 426.608 426.608 1 1 0
0.126141 426.603 426.603 1 1 0
0.126145 426.598 426.598 1 1 0
0.126148 426.594 426.594 1 1 0
0.126152 426.589 426.589 1 1 0
0.126155 426.584 426.584 1 1 0
0.126159 426.579 426.579 1 1 0
0.126162 426.574 426.574 1 1 0
0.126166 426.569 426.569 1 1 0
0.126169 426.565 426.565 1 1 0
0.126173 426.56 426.56 1 1 0
0.126177 426.555 426.555 1 1 0
0.12618 426.55 426.55 1 1 0
0.126184 426.545 426.545 1 1 0
0.126187 426.54 426.54 1 1 0
0.126191 426.536 426.536 1 1 0
0.126194 426.531 426.531 1 1 0
0.126198 426.526 426.526 1 1 0
0.126201 426.521 426.521 1 1 0
0.126205 426.516 426.516 1 1 0
0.126208 426.511 426.511 1 1 0
0.126212 426.507 426.507 1 1 0
0.126216 426.502 426.502 1 1 0
0.126219 426.497 426.497 1 1 0
0.126223 426.492 426.492 1 1 0
0.126226 426.487 426.487 1 1 0
0.12623 426.482 426.482 1 1 0
0.126233 426.478 426.478 1 1 0
0.126237 426.473 426.473 1 1 0
0.12624 426.468 426.468 1 1 0
0.126244 426.463 426.463 1 1 0
0.126247 426.458 426.458 1 1 0
0.126251 426.453 426.453 1 1 0
0.126255 426.448 426.448 1 1 0
0.126258 426.444 426.444 1 1 0
0.126262 426.439 426.439 1 1 0
0.126265 426.434 426.434 1 1 0
0.126269 426.429 426.429 1 1 0
0.126272 426.424 426.424 1 1 0
0.126276 426.419 426.419 1 1 0
0.126279 426.414 426.414 1 1 0
0.126283 426.409 426.409 1 1 0
0.126287 426.405 426.405 1 1 0
0.12629 426.4 426.4 1 1 0
0.126294 426.395 426.395 1 1 0
0.126297 426.39 426.39 1 1 0
0.126301 426.385 426.385 1 1 0
0.126304 426.38 426.38 1 1 0
0.126308 426.375 426.375 1 1 0
0.126311 426.37 426.37 1 1 0
0.126315 426.366 426.366 1 1 0
0.126319 426.361 426.361 1 1 0
0.126322 426.356 426.356 1 1 0
0.126326 426.351 426.351 1 1 0
0.126329 426.346 426.346 1 1 0
0.126333 426.341 426.341 1 1 0
0.126336 426.336 426.336 1 1 0
0.12634 426.331 426.331 1 1 0
0.126343 426.326 426.326 1 1 0
0.126347 426.322 426.322 1 1 0
0.126351 426.317 426.317 1 1 0
0.126354 426.312 426.312 1 1 0
0.126358 426.307 426.307 1 1 0
0.126361 426.302 426.302 1 1 0
0.126365 426.297 426.297 1 1 0
0.126368 426.292 426.292 1 1 0
0.126372 426.287 426.287 1 1 0
0.126376 426.282 426.282 1 1 0
0.126379 426.278 426.278 1 1 0
0.126383 426.273 426.273 1 1 0
0.126386 426.268 426.268 1 1 0
0.12639 426.263 426.263 1 1 0
0.126393 426.258 426.258 1 1 0
0.126397 426.253 426.253 1 1 0
0.126401 426.248 426.248 1 1 0
0.126404 426.243 426.243 1 1 0
0.126408 426.238 426.238 1 1 0
0.126411 426.233 426.233 1 1 0
0.126415 426.228 426.228 1 1 0
0.126418 426.223 426.223 1 1 0
0.126422 426.219 426.219 1 1 0
0.126425 426.214 426.214 1 1 0
0.126429 426.209 426.209 1 1 0
0.126433 426.204 426.204 1 1 0
0.126436 426.199 426.199 1 1 0
0.12644 426.194 426.194 1 1 0
0.126443 426.189 426.189 1 1 0
0.126447 426.184 426.184 1 1 0
0.12645 426.179 426.179 1 1 0
0.126454 426.174 426.174 1 1 0
0.126458 426.169 426.169 1 1 0
0.126461 426.164 426.164 1 1 0
0.126465 426.159 426.159 1 1 0
0.126468 426.154 426.154 1 1 0
0.126472 426.149 426.149 1 1 0
0.126475 426.145 426.145 1 1 0
0.126479 426.14 426.14 1 1 0
0.126483 426.135 426.135 1 1 0
0.126486 426.13 426.13 1 1 0
0.12649 426.125 426.125 1 1 0
0.126493 426.12 426.12 1 1 0
0.126497 426.115 426.115 1 1 0
0.126501 426.11 426.11 1 1 0
0.126504 426.105 426.105 1 1 0
0.126508 426.1 426.1 1 1 0
0.126511 426.095 426.095 1 1 0
0.126515 426.09 426.09 1 1 0
0.126518 426.085 426.085 1 1 0
0.126522 426.08 426.08 1 1 0
0.126526 426.075 426.075 1 1 0
0.126529 426.07 426.07 1 1 0
0.126533 426.065 426.065 1 1 0
0.126536 426.06 426.06 1 1 0
0.12654 426.055 426.055 1 1 0
0.126543 426.05 426.05 1 1 0
0.126547 426.045 426.045 1 1 0
0.126551 426.04 426.04 1 1 0
0.126554 426.035 426.035 1 1 0
0.126558 426.031 426.031 1 1 0
0.126561 426.026 426.026 1 1 0
0.126565 426.021 426.021 1 1 0
0.126569 426.016 426.016 1 1 0
0.126572 426.011 426.011 1 1 0
0.126576 426.006 426.006 1 1 0
0.126579 426.001 426.001 1 1 0
0.126583 425.996 425.996 1 1 0
0.126586 425.991 425.991 1 1 0
0.12659 425.986 425.986 1 1 0
0.126594 425.981 425.981 1 1 0
0.126597 425.976 425.976 1 1 0
0.126601 425.971 425.971 1 1 0
0.126604 425.966 425.966 1 1 0
0.126608 425.961 425.961 1 1 0
0.126612 425.956 425.956 1 1 0
0.126615 425.951 425.951 1 1 0
0.126619 425.946 425.946 1 1 0
0.126622 425.941 425.941 1 1 0
0.126626 425.936 425.936 1 1 0
0.12663 425.931 425.931 1 1 0
0.126633 425.926 425.926 1 1 0
0.126637 425.921 425.921 1 1 0
0.12664 425.916 425.916 1 1 0
0.126644 425.911 425.911 1 1 0
0.126648 425.906 425.906 1 1 0
0.126651 425.901 425.901 1 1 0
0.126655 425.896 425.896 1 1 0
0.126658 425.891 425.891 1 1 0
0.126662 425.886 425.886 1 1 0
0.126665 425.881 425.881 1 1 0
0.126669 425.876 425.876 1 1 0
0.126673 425.871 425.871 1 1 0
0.126676 425.866 425.866 1 1 0
0.12668 425.861 425.861 1 1 0
0.126683 425.856 425.856 1 1 0
0.126687 425.851 425.851 1 1 0
0.126691 425.846 425.846 1 1 0
0.126694 425.84 425.84 1 1 0
0.126698 425.835 425.835 1 1 0
0.126701 425.83 425.83 1 1 0
0.126705 425.825 425.825 1 1 0
0.126709 425.82 425.82 1 1 0
0.126712 425.815 425.815 1 1 0
0.126716 425.81 425.81 1 1 0
0.126719 425.805 425.805 1 1 0
0.126723 425.8 425.8 1 1 0
0.126727 425.795 425.795 1 1 0
0.12673 425.79 425.79 1 1 0
0.126734 425.785 425.785 1 1 0
0.126737 425.78 425.78 1 1 0
0.126741 425.775 425.775 1 1 0
0.126745 425.77 425.77 1 1 0
0.126748 425.765 425.765 1 1 0
0.126752 425.76 425.76 1 1 0
0.126755 425.755 425.755 1 1 0
0.126759 425.75 425.75 1 1 0
0.126763 425.745 425.745 1 1 0
0.126766 425.74 425.74 1 1 0
0.12677 425.735 425.735 1 1 0
0.126774 425.73 425.73 1 1 0
0.126777 425.725 425.725 1 1 0
0.126781 425.719 425.719 1 1 0
0.126784 425.714 425.714 1 1 0
0.126788 425.709 425.709 1 1 0
0.126792 425.704 425.704 1 1 0
0.126795 425.699 425.699 1 1 0
0.126799 425.694 425.694 1 1 0
0.126802 425.689 425.689 1 1 0
0.126806 425.684 425.684 1 1 0
0.12681 425.679 425.679 1 1 0
0.126813 425.674 425.674 1 1 0
0.126817 425.669 425.669 1 1 0
0.12682 425.664 425.664 1 1 0
0.126824 425.659 425.659 1 1 0
0.126828 425.654 425.654 1 1 0
0.126831 425.648 425.648 1 1 0
0.126835 425.643 425.643 1 1 0
0.126839 425.638 425.638 1 1 0
0.126842 425.633 425.633 1 1 0
0.126846 425.628 425.628 1 1 0
0.126849 425.623 425.623 1 1 0
0.126853 425.618 425.618 1 1 0
0.126857 425.613 425.613 1 1 0
0.12686 425.608 425.608 1 1 0
0.126864 425.603 425.603 1 1 0
0.126867 425.598 425.598 1 1 0
0.126871 425.593 425.593 1 1 0
0.126875 425.587 425.587 1 1 0
0.126878 425.582 425.582 1 1 0
0.126882 425.577 425.577 1 1 0
0.126886 425.572 425.572 1 1 0
0.126889 425.567 425.567 1 1 0
0.126893 425.562 425.562 1 1 0
0.126896 425.557 425.557 1 1 0
0.1269 425.552 425.552 1 1 0
0.126904 425.547 425.547 1 1 0
0.126907 425.542 425.542 1 1 0
0.126911 425.536 425.536 1 1 0
0.126914 425.531 425.531 1 1 0
0.126918 425.526 425.526 1 1 0
0.126922 425.521 425.521 1 1 0
0.126925 425.516 425.516 1 1 0
0.126929 425.511 425.511 1 1 0
0.126933 425.506 425.506 1 1 0
0.126936 425.501 425.501 1 1 0
0.12694 425.495 425.495 1 1 0
0.126943 425.49 425.49 1 1 0
0.126947 425.485 425.485 1 1 0
0.126951 425.48 425.48 1 1 0
0.126954 425.475 425.475 1 1 0
0.126958 425.47 425.47 1 1 0
0.126962 425.465 425.465 1 1 0
0.126965 425.46 425.46 1 1 0
0.126969 425.454 425.454 1 1 0
0.126972 425.449 425.449 1 1 0
0.126976 425.444 425.444 1 1 0
0.12698 425.439 425.439 1 1 0
0.126983 425.434 425.434 1 1 0
0.126987 425.429 425.429 1 1 0
0.126991 425.424 425.424 1 1 0
0.126994 425.419 425.419 1 1 0
0.126998 425.413 425.413 1 1 0
0.127002 425.408 425.408 1 1 0
0.127005 425.403 425.403 1 1 0
0.127009 425.398 425.398 1 1 0
0.127012 425.393 425.393 1 1 0
0.127016 425.388 425.388 1 1 0
0.12702 425.382 425.382 1 1 0
0.127023 425.377 425.377 1 1 0
0.127027 425.372 425.372 1 1 0
0.127031 425.367 425.367 1 1 0
0.127034 425.362 425.362 1 1 0
0.127038 425.357 425.357 1 1 0
0.127041 425.352 425.352 1 1 0
0.127045 425.346 425.346 1 1 0
0.127049 425.341 425.341 1 1 0
0.127052 425.336 425.336 1 1 0
0.127056 425.331 425.331 1 1 0
0.12706 425.326 425.326 1 1 0
0.127063 425.321 425.321 1 1 0
0.127067 425.315 425.315 1 1 0
0.127071 425.31 425.31 1 1 0
0.127074 425.305 425.305 1 1 0
0.127078 425.3 425.3 1 1 0
0.127081 425.295 425.295 1 1 0
0.127085 425.29 425.29 1 1 0
0.127089 425.284 425.284 1 1 0
0.127092 425.279 425.279 1 1 0
0.127096 425.274 425.274 1 1 0
0.1271 425.269 425.269 1 1 0
0.127103 425.264 425.264 1 1 0
0.127107 425.258 425.258 1 1 0
0.127111 425.253 425.253 1 1 0
0.127114 425.248 425.248 1 1 0
0.127118 425.243 425.243 1 1 0
0.127122 425.238 425.238 1 1 0
0.127125 425.232 425.232 1 1 0
0.127129 425.227 425.227 1 1 0
0.127132 425.222 425.222 1 1 0
0.127136 425.217 425.217 1 1 0
0.12714 425.212 425.212 1 1 0
0.127143 425.207 425.207 1 1 0
0.127147 425.201 425.201 1 1 0
0.127151 425.196 425.196 1 1 0
0.127154 425.191 425.191 1 1 0
0.127158 425.186 425.186 1 1 0
0.127162 425.18 425.18 1 1 0
0.127165 425.175 425.175 1 1 0
0.127169 425.17 425.17 1 1 0
0.127173 425.165 425.165 1 1 0
0.127176 425.16 425.16 1 1 0
0.12718 425.154 425.154 1 1 0
0.127184 425.149 425.149 1 1 0
0.127187 425.144 425.144 1 1 0
0.127191 425.139 425.139 1 1 0
0.127195 425.134 425.134 1 1 0
0.127198 425.128 425.128 1 1 0
0.127202 425.123 425.123 1 1 0
0.127205 425.118 425.118 1 1 0
0.127209 425.113 425.113 1 1 0
0.127213 425.107 425.107 1 1 0
0.127216 425.102 425.102 1 1 0
0.12722 425.097 425.097 1 1 0
0.127224 425.092 425.092 1 1 0
0.127227 425.087 425.087 1 1 0
0.127231 425.081 425.081 1 1 0
0.127235 425.076 425.076 1 1 0
0.127238 425.071 425.071 1 1 0
0.127242 425.066 425.066 1 1 0
0.127246 425.06 425.06 1 1 0
0.127249 425.055 425.055 1 1 0
0.127253 425.05 425.05 1 1 0
0.127257 425.045 425.045 1 1 0
0.12726 425.039 425.039 1 1 0
0.127264 425.034 425.034 1 1 0
0.127268 425.029 425.029 1 1 0
0.127271 425.024 425.024 1 1 0
0.127275 425.018 425.018 1 1 0
0.127279 425.013 425.013 1 1 0
0.127282 425.008 425.008 1 1 0
0.127286 425.003 425.003 1 1 0
0.12729 424.997 424.997 1 1 0
0.127293 424.992 424.992 1 1 0
0.127297 424.987 424.987 1 1 0
0.127301 424.982 424.982 1 1 0
0.127304 424.976 424.976 1 1 0
0.127308 424.971 424.971 1 1 0
0.127312 424.966 424.966 1 1 0
0.127315 424.96 424.96 1 1 0
0.127319 424.955 424.955 1 1 0
0.127323 424.95 424.95 1 1 0
0.127326 424.945 424.945 1 1 0
0.12733 424.939 424.939 1 1 0
0.127334 424.934 424.934 1 1 0
0.127337 424.929 424.929 1 1 0
0.127341 424.924 424.924 1 1 0
0.127345 424.918 424.918 1 1 0
0.127348 424.913 424.913 1 1 0
0.127352 424.908 424.908 1 1 0
0.127356 424.902 424.902 1 1 0
0.127359 424.897 424.897 1 1 0
0.127363 424.892 424.892 1 1 0
0.127367 424.887 424.887 1 1 0
0.12737 424.881 424.881 1 1 0
0.127374 424.876 424.876 1 1 0
0.127378 424.871 424.871 1 1 0
0.127381 424.865 424.865 1 1 0
0.127385 424.86 424.86 1 1 0
0.127389 424.855 424.855 1 1 0
0.127392 424.85 424.85 1 1 0
0.127396 424.844 424.844 1 1 0
0.1274 424.839 424.839 1 1 0
0.127403 424.834 424.834 1 1 0
0.127407 424.828 424.828 1 1 0
0.127411 424.823 424.823 1 1 0
0.127414 424.818 424.818 1 1 0
0.127418 424.812 424.812 1 1 0
0.127422 424.807 424.807 1 1 0
0.127425 424.802 424.802 1 1 0
0.127429 424.796 424.796 1 1 0
0.127433 424.791 424.791 1 1 0
0.127436 424.786 424.786 1 1 0
0.12744 424.781 424.781 1 1 0
0.127444 424.775 424.775 1 1 0
0.127447 424.77 424.77 1 1 0
0.127451 424.765 424.765 1 1 0
0.127455 424.759 424.759 1 1 0
0.127459 424.754 424.754 1 1 0
0.127462 424.749 424.749 1 1 0
0.127466 424.743 424.743 1 1 0
0.12747 424.738 424.738 1 1 0
0.127473 424.733 424.733 1 1 0
0.127477 424.727 424.727 1 1 0
0.127481 424.722 424.722 1 1 0
0.127484 424.717 424.717 1 1 0
0.127488 424.711 424.711 1 1 0
0.127492 424.706 424.706 1 1 0
0.127495 424.701 424.701 1 1 0
0.127499 424.695 424.695 1 1 0
0.127503 424.69 424.69 1 1 0
0.127506 424.685 424.685 1 1 0
0.12751 424.679 424.679 1 1 0
0.127514 424.674 424.674 1 1 0
0.127517 424.669 424.669 1 1 0
0.127521 424.663 424.663 1 1 0
0.127525 424.658 424.658 1 1 0
0.127529 424.653 424.653 1 1 0
0.127532 424.647 424.647 1 1 0
0.127536 424.642 424.642 1 1 0
0.12754 424.636 424.636 1 1 0
0.127543 424.631 424.631 1 1 0
0.127547 424.626 424.626 1 1 0
0.127551 424.62 424.62 1 1 0
0.127554 424.615 424.615 1 1 0
0.127558 424.61 424.61 1 1 0
0.127562 424.604 424.604 1 1 0
0.127565 424.599 424.599 1 1 0
0.127569 424.594 424.594 1 1 0
0.127573 424.588 424.588 1 1 0
0.127577 424.583 424.583 1 1 0
0.12758 424.577 424.577 1 1 0
0.127584 424.572 424.572 1 1 0
0.127588 424.567 424.567 1 1 0
0.127591 424.561 424.561 1 1 0
0.127595 424.556 424.556 1 1 0
0.127599 424.551 424.551 1 1 0
0.127602 424.545 424.545 1 1 0
0.127606 424.54 424.54 1 1 0
0.12761 424.534 424.534 1 1 0
0.127613 424.529 424.529 1 1 0
0.127617 424.524 424.524 1 1 0
0.127621 424.518 424.518 1 1 0
0.127625 424.513 424.513 1 1 0
0.127628 424.507 424.507 1 1 0
0.127632 424.502 424.502 1 1 0
0.127636 424.497 424.497 1 1 0
0.127639 424.491 424.491 1 1 0
0.127643 424.486 424.486 1 1 0
0.127647 424.48 424.48 1 1 0
0.12765 424.475 424.475 1 1 0
0.127654 424.47 424.47 1 1 0
0.127658 424.464 424.464 1 1 0
0.127662 424.459 424.459 1 1 0
0.127665 424.453 424.453 1 1 0
0.127669 424.448 424.448 1 1 0
0.127673 424.443 424.443 1 1 0
0.127676 424.437 424.437 1 1 0
0.12768 424.432 424.432 1 1 0
0.127684 424.426 424.426 1 1 0
0.127688 424.421 424.421 1 1 0
0.127691 424.416 424.416 1 1 0
0.127695 424.41 424.41 1 1 0
0.127699 424.405 424.405 1 1 0
0.127702 424.399 424.399 1 1 0
0.127706 424.394 424.394 1 1 0
0.12771 424.388 424.388 1 1 0
0.127713 424.383 424.383 1 1 0
0.127717 424.378 424.378 1 1 0
0.127721 424.372 424.372 1 1 0
0.127725 424.367 424.367 1 1 0
0.127728 424.361 424.361 1 1 0
0.127732 424.356 424.356 1 1 0
0.127736 424.35 424.35 1 1 0
0.127739 424.345 424.345 1 1 0
0.127743 424.34 424.34 1 1 0
0.127747 424.334 424.334 1 1 0
0.127751 424.329 424.329 1 1 0
0.127754 424.323 424.323 1 1 0
0.127758 424.318 424.318 1 1 0
0.127762 424.312 424.312 1 1 0
0.127765 424.307 424.307 1 1 0
0.127769 424.301 424.301 1 1 0
0.127773 424.296 424.296 1 1 0
0.127777 424.291 424.291 1 1 0
0.12778 424.285 424.285 1 1 0
0.127784 424.28 424.28 1 1 0
0.127788 424.274 424.274 1 1 0
0.127791 424.269 424.269 1 1 0
0.127795 424.263 424.263 1 1 0
0.127799 424.258 424.258 1 1 0
0.127803 424.252 424.252 1 1 0
0.127806 424.247 424.247 1 1 0
0.12781 424.241 424.241 1 1 0
0.127814 424.236 424.236 1 1 0
0.127818 424.23 424.23 1 1 0
0.127821 424.225 424.225 1 1 0
0.127825 424.22 424.22 1 1 0
0.127829 424.214 424.214 1 1 0
0.127832 424.209 424.209 1 1 0
0.127836 424.203 424.203 1 1 0
0.12784 424.198 424.198 1 1 0
0.127844 424.192 424.192 1 1 0
0.127847 424.187 424.187 1 1 0
0.127851 424.181 424.181 1 1 0
0.127855 424.176 424.176 1 1 0
0.127858 424.17 424.17 1 1 0
0.127862 424.165 424.165 1 1 0
0.127866 424.159 424.159 1 1 0
0.12787 424.154 424.154 1 1 0
0.127873 424.148 424.148 1 1 0
0.127877 424.143 424.143 1 1 0
0.127881 424.137 424.137 1 1 0
0.127885 424.132 424.132 1 1 0
0.127888 424.126 424.126 1 1 0
0.127892 424.121 424.121 1 1 0
0.127896 424.115 424.115 1 1 0
0.127899 424.11 424.11 1 1 0
0.127903 424.104 424.104 1 1 0
0.127907 424.099 424.099 1 1 0
0.127911 424.093 424.093 1 1 0
0.127914 424.088 424.088 1 1 0
0.127918 424.082 424.082 1 1 0
0.127922 424.077 424.077 1 1 0
0.127926 424.071 424.071 1 1 0
0.127929 424.066 424.066 1 1 0
0.127933 424.06 424.06 1 1 0
0.127937 424.055 424.055 1 1 0
0.127941 424.049 424.049 1 1 0
0.127944 424.044 424.044 1 1 0
0.127948 424.038 424.038 1 1 0
0.127952 424.033 424.033 1 1 0
0.127956 424.027 424.027 1 1 0
0.127959 424.022 424.022 1 1 0
0.127963 424.016 424.016 1 1 0
0.127967 424.011 424.011 1 1 0
0.12797 424.005 424.005 1 1 0
0.127974 423.999 423.999 1 1 0
0.127978 423.994 423.994 1 1 0
0.127982 423.988 423.988 1 1 0
0.127985 423.983 423.983 1 1 0
0.127989 423.977 423.977 1 1 0
0.127993 423.972 423.972 1 1 0
0.127997 423.966 423.966 1 1 0
0.128 423.961 423.961 1 1 0
0.128004 423.955 423.955 1 1 0
0.128008 423.95 423.95 1 1 0
0.128012 423.944 423.944 1 1 0
0.128015 423.939 423.939 1 1 0
0.128019 423.933 423.933 1 1 0
0.128023 423.927 423.927 1 1 0
0.128027 423.922 423.922 1 1 0
0.12803 423.916 423.916 1 1 0
0.128034 423.911 423.911 1 1 0
0.128038 423.905 423.905 1 1 0
0.128042 423.9 423.9 1 1 0
0.128045 423.894 423.894 1 1 0
0.128049 423.889 423.889 1 1 0
0.128053 423.883 423.883 1 1 0
0.128057 423.877 423.877 1 1 0
0.12806 423.872 423.872 1 1 0
0.128064 423.866 423.866 1 1 0
0.128068 423.861 423.861 1 1 0
0.128072 423.855 423.855 1 1 0
0.128075 423.85 423.85 1 1 0
0.128079 423.844 423.844 1 1 0
0.128083 423.838 423.838 1 1 0
0.128087 423.833 423.833 1 1 0
0.12809 423.827 423.827 1 1 0
0.128094 423.822 423.822 1 1 0
0.128098 423.816 423.816 1 1 0
0.128102 423.811 423.811 1 1 0
0.128105 423.805 423.805 1 1 0
0.128109 423.799 423.799 1 1 0
0.128113 423.794 423.794 1 1 0
0.128117 423.788 423.788 1 1 0
0.12812 423.783 423.783 1 1 0
0.128124 423.777 423.777 1 1 0
0.128128 423.771 423.771 1 1 0
0.128132 423.766 423.766 1 1 0
0.128135 423.76 423.76 1 1 0
0.128139 423.755 423.755 1 1 0
0.128143 423.749 423.749 1 1 0
0.128147 423.743 423.743 1 1 0
0.12815 423.738 423.738 1 1 0
0.128154 423.732 423.732 1 1 0
0.128158 423.727 423.727 1 1 0
0.128162 423.721 423.721 1 1 0
0.128165 423.715 423.715 1 1 0
0.128169 423.71 423.71 1 1 0
0.128173 423.704 423.704 1 1 0
0.128177 423.699 423.699 1 1 0
0.12818 423.693 423.693 1 1 0
0.128184 423.687 423.687 1 1 0
0.128188 423.682 423.682 1 1 0
0.128192 423.676 423.676 1 1 0
0.128196 423.67 423.67 1 1 0
0.128199 423.665 423.665 1 1 0
0.128203 423.659 423.659 1 1 0
0.128207 423.654 423.654 1 1 0
0.128211 423.648 423.648 1 1 0
0.128214 423.642 423.642 1 1 0
0.128218 423.637 423.637 1 1 0
0.128222 423.631 423.631 1 1 0
0.128226 423.625 423.625 1 1 0
0.128229 423.62 423.62 1 1 0
0.128233 423.614 423.614 1 1 0
0.128237 423.608 423.608 1 1 0
0.128241 423.603 423.603 1 1 0
0.128244 423.597 423.597 1 1 0
0.128248 423.592 423.592 1 1 0
0.128252 423.586 423.586 1 1 0
0.128256 423.58 423.58 1 1 0
0.12826 423.575 423.575 1 1 0
0.128263 423.569 423.569 1 1 0
0.128267 423.563 423.563 1 1 0
0.128271 423.558 423.558 1 1 0
0.128275 423.552 423.552 1 1 0
0.128278 423.546 423.546 1 1 0
0.128282 423.541 423.541 1 1 0
0.128286 423.535 423.535 1 1 0
0.12829 423.529 423.529 1 1 0
0.128294 423.524 423.524 1 1 0
0.128297 423.518 423.518 1 1 0
0.128301 423.512 423.512 1 1 0
0.128305 423.507 423.507 1 1 0
0.128309 423.501 423.501 1 1 0
0.128312 423.495 423.495 1 1 0
0.128316 423.49 423.49 1 1 0
0.12832 423.484 423.484 1 1 0
0.128324 423.478 423.478 1 1 0
0.128328 423.473 423.473 1 1 0
0.128331 423.467 423.467 1 1 0
0.128335 423.461 423.461 1 1 0
0.128339 423.456 423.456 1 1 0
0.128343 423.45 423.45 1 1 0
0.128346 423.444 423.444 1 1 0
0.12835 423.439 423.439 1 1 0
0.128354 423.433 423.433 1 1 0
0.128358 423.427 423.427 1 1 0
0.128362 423.422 423.422 1 1 0
0.128365 423.416 423.416 1 1 0
0.128369 423.41 423.41 1 1 0
0.128373 423.404 423.404 1 1 0
0.128377 423.399 423.399 1 1 0
0.12838 423.393 423.393 1 1 0
0.128384 423.387 423.387 1 1 0
0.128388 423.382 423.382 1 1 0
0.128392 423.376 423.376 1 1 0
0.128396 423.37 423.37 1 1 0
0.128399 423.365 423.365 1 1 0
0.128403 423.359 423.359 1 1 0
0.128407 423.353 423.353 1 1 0
0.128411 423.347 423.347 1 1 0
0.128415 423.342 423.342 1 1 0
0.128418 423.336 423.336 1 1 0
0.128422 423.33 423.33 1 1 0
0.128426 423.325 423.325 1 1 0
