0.113514 224.983 224.983 1 1 0
0.113517 224.977 224.977 1 1 0
0.113519 224.972 224.972 1 1 0
0.113522 224.967 224.967 1 1 0
0.113524 224.962 224.962 1 1 0
0.113527 224.956 224.956 1 1 0
0.113529 224.951 224.951 1 1 0
0.113532 224.946 224.946 1 1 0
0.113534 224.94 224.94 1 1 0
0.113537 224.935 224.935 1 1 0
0.113539 224.93 224.93 1 1 0
0.113542 224.924 224.924 1 1 0
0.113544 224.919 224.919 1 1 0
0.113547 224.914 224.914 1 1 0
0.11355 224.909 224.909 1 1 0
0.113552 224.903 224.903 1 1 0
0.113555 224.898 224.898 1 1 0
0.113557 224.893 224.893 1 1 0
0.11356 224.887 224.887 1 1 0
0.113562 224.882 224.882 1 1 0
0.113565 224.877 224.877 1 1 0
0.113567 224.872 224.872 1 1 0
0.11357 224.866 224.866 1 1 0
0.113572 224.861 224.861 1 1 0
0.113575 224.856 224.856 1 1 0
0.113577 224.85 224.85 1 1 0
0.11358 224.845 224.845 1 1 0
0.113582 224.84 224.84 1 1 0
0.113585 224.834 224.834 1 1 0
0.113587 224.829 224.829 1 1 0
0.11359 224.824 224.824 1 1 0
0.113592 224.819 224.819 1 1 0
0.113595 224.813 224.813 1 1 0
0.113597 224.808 224.808 1 1 0
0.1136 224.803 224.803 1 1 0
0.113602 224.797 224.797 1 1 0
0.113605 224.792 224.792 1 1 0
0.113607 224.787 224.787 1 1 0
0.11361 224.781 224.781 1 1 0
0.113613 224.776 224.776 1 1 0
0.113615 224.771 224.771 1 1 0
0.113618 224.765 224.765 1 1 0
0.11362 224.76 224.76 1 1 0
0.113623 224.755 224.755 1 1 0
0.113625 224.75 224.75 1 1 0
0.113628 224.744 224.744 1 1 0
0.11363 224.739 224.739 1 1 0
0.113633 224.734 224.734 1 1 0
0.113635 224.728 224.728 1 1 0
0.113638 224.723 224.723 1 1 0
0.11364 224.718 224.718 1 1 0
0.113643 224.712 224.712 1 1 0
0.113645 224.707 224.707 1 1 0
0.113648 224.702 224.702 1 1 0
0.11365 224.696 224.696 1 1 0
0.113653 224.691 224.691 1 1 0
0.113655 224.686 224.686 1 1 0
0.113658 224.681 224.681 1 1 0
0.11366 224.675 224.675 1 1 0
0.113663 224.67 224.67 1 1 0
0.113666 224.665 224.665 1 1 0
0.113668 224.659 224.659 1 1 0
0.113671 224.654 224.654 1 1 0
0.113673 224.649 224.649 1 1 0
0.113676 224.643 224.643 1 1 0
0.113678 224.638 224.638 1 1 0
0.113681 224.633 224.633 1 1 0
0.113683 224.627 224.627 1 1 0
0.113686 224.622 224.622 1 1 0
0.113688 224.617 224.617 1 1 0
0.113691 224.612 224.612 1 1 0
0.113693 224.606 224.606 1 1 0
0.113696 224.601 224.601 1 1 0
0.113698 224.596 224.596 1 1 0
0.113701 224.59 224.59 1 1 0
0.113703 224.585 224.585 1 1 0
0.113706 224.58 224.58 1 1 0
0.113708 224.574 224.574 1 1 0
0.113711 224.569 224.569 1 1 0
0.113714 224.564 224.564 1 1 0
0.113716 224.558 224.558 1 1 0
0.113719 224.553 224.553 1 1 0
0.113721 224.548 224.548 1 1 0
0.113724 224.542 224.542 1 1 0
0.113726 224.537 224.537 1 1 0
0.113729 224.532 224.532 1 1 0
0.113731 224.527 224.527 1 1 0
0.113734 224.521 224.521 1 1 0
0.113736 224.516 224.516 1 1 0
0.113739 224.511 224.511 1 1 0
0.113741 224.505 224.505 1 1 0
0.113744 224.5 224.5 1 1 0
0.113746 224.495 224.495 1 1 0
0.113749 224.489 224.489 1 1 0
0.113752 224.484 224.484 1 1 0
0.113754 224.479 224.479 1 1 0
0.113757 224.473 224.473 1 1 0
0.113759 224.468 224.468 1 1 0
0.113762 224.463 224.463 1 1 0
0.113764 224.457 224.457 1 1 0
0.113767 224.452 224.452 1 1 0
0.113769 224.447 224.447 1 1 0
0.113772 224.441 224.441 1 1 0
0.113774 224.436 224.436 1 1 0
0.113777 224.431 224.431 1 1 0
0.113779 224.426 224.426 1 1 0
0.113782 224.42 224.42 1 1 0
0.113784 224.415 224.415 1 1 0
0.113787 224.41 224.41 1 1 0
0.113789 224.404 224.404 1 1 0
0.113792 224.399 224.399 1 1 0
0.113795 224.394 224.394 1 1 0
0.113797 224.388 224.388 1 1 0
0.1138 224.383 224.383 1 1 0
0.113802 224.378 224.378 1 1 0
0.113805 224.372 224.372 1 1 0
0.113807 224.367 224.367 1 1 0
0.11381 224.362 224.362 1 1 0
0.113812 224.356 224.356 1 1 0
0.113815 224.351 224.351 1 1 0
0.113817 224.346 224.346 1 1 0
0.11382 224.34 224.34 1 1 0
0.113822 224.335 224.335 1 1 0
0.113825 224.33 224.33 1 1 0
0.113828 224.324 224.324 1 1 0
0.11383 224.319 224.319 1 1 0
0.113833 224.314 224.314 1 1 0
0.113835 224.308 224.308 1 1 0
0.113838 224.303 224.303 1 1 0
0.11384 224.298 224.298 1 1 0
0.113843 224.292 224.292 1 1 0
0.113845 224.287 224.287 1 1 0
0.113848 224.282 224.282 1 1 0
0.11385 224.276 224.276 1 1 0
0.113853 224.271 224.271 1 1 0
0.113855 224.266 224.266 1 1 0
0.113858 224.26 224.26 1 1 0
0.11386 224.255 224.255 1 1 0
0.113863 224.25 224.25 1 1 0
0.113866 224.245 224.245 1 1 0
0.113868 224.239 224.239 1 1 0
0.113871 224.234 224.234 1 1 0
0.113873 224.229 224.229 1 1 0
0.113876 224.223 224.223 1 1 0
0.113878 224.218 224.218 1 1 0
0.113881 224.213 224.213 1 1 0
0.113883 224.207 224.207 1 1 0
0.113886 224.202 224.202 1 1 0
0.113888 224.197 224.197 1 1 0
0.113891 224.191 224.191 1 1 0
0.113893 224.186 224.186 1 1 0
0.113896 224.181 224.181 1 1 0
0.113899 224.175 224.175 1 1 0
0.113901 224.17 224.17 1 1 0
0.113904 224.165 224.165 1 1 0
0.113906 224.159 224.159 1 1 0
0.113909 224.154 224.154 1 1 0
0.113911 224.149 224.149 1 1 0
0.113914 224.143 224.143 1 1 0
0.113916 224.138 224.138 1 1 0
0.113919 224.133 224.133 1 1 0
0.113921 224.127 224.127 1 1 0
0.113924 224.122 224.122 1 1 0
0.113927 224.117 224.117 1 1 0
0.113929 224.111 224.111 1 1 0
0.113932 224.106 224.106 1 1 0
0.113934 224.101 224.101 1 1 0
0.113937 224.095 224.095 1 1 0
0.113939 224.09 224.09 1 1 0
0.113942 224.085 224.085 1 1 0
0.113944 224.079 224.079 1 1 0
0.113947 224.074 224.074 1 1 0
0.113949 224.069 224.069 1 1 0
0.113952 224.063 224.063 1 1 0
0.113954 224.058 224.058 1 1 0
0.113957 224.053 224.053 1 1 0
0.11396 224.047 224.047 1 1 0
0.113962 224.042 224.042 1 1 0
0.113965 224.037 224.037 1 1 0
0.113967 224.031 224.031 1 1 0
0.11397 224.026 224.026 1 1 0
0.113972 224.021 224.021 1 1 0
0.113975 224.015 224.015 1 1 0
0.113977 224.01 224.01 1 1 0
0.11398 224.005 224.005 1 1 0
0.113982 223.999 223.999 1 1 0
0.113985 223.994 223.994 1 1 0
0.113988 223.989 223.989 1 1 0
0.11399 223.983 223.983 1 1 0
0.113993 223.978 223.978 1 1 0
0.113995 223.972 223.972 1 1 0
0.113998 223.967 223.967 1 1 0
0.114 223.962 223.962 1 1 0
0.114003 223.956 223.956 1 1 0
0.114005 223.951 223.951 1 1 0
0.114008 223.946 223.946 1 1 0
0.11401 223.94 223.94 1 1 0
0.114013 223.935 223.935 1 1 0
0.114016 223.93 223.93 1 1 0
0.114018 223.924 223.924 1 1 0
0.114021 223.919 223.919 1 1 0
0.114023 223.914 223.914 1 1 0
0.114026 223.908 223.908 1 1 0
0.114028 223.903 223.903 1 1 0
0.114031 223.898 223.898 1 1 0
0.114033 223.892 223.892 1 1 0
0.114036 223.887 223.887 1 1 0
0.114039 223.882 223.882 1 1 0
0.114041 223.876 223.876 1 1 0
0.114044 223.871 223.871 1 1 0
0.114046 223.866 223.866 1 1 0
0.114049 223.86 223.86 1 1 0
0.114051 223.855 223.855 1 1 0
0.114054 223.85 223.85 1 1 0
0.114056 223.844 223.844 1 1 0
0.114059 223.839 223.839 1 1 0
0.114061 223.834 223.834 1 1 0
0.114064 223.828 223.828 1 1 0
0.114067 223.823 223.823 1 1 0
0.114069 223.818 223.818 1 1 0
0.114072 223.812 223.812 1 1 0
0.114074 223.807 223.807 1 1 0
0.114077 223.801 223.801 1 1 0
0.114079 223.796 223.796 1 1 0
0.114082 223.791 223.791 1 1 0
0.114084 223.785 223.785 1 1 0
0.114087 223.78 223.78 1 1 0
0.11409 223.775 223.775 1 1 0
0.114092 223.769 223.769 1 1 0
0.114095 223.764 223.764 1 1 0
0.114097 223.759 223.759 1 1 0
0.1141 223.753 223.753 1 1 0
0.114102 223.748 223.748 1 1 0
0.114105 223.743 223.743 1 1 0
0.114107 223.737 223.737 1 1 0
0.11411 223.732 223.732 1 1 0
0.114112 223.727 223.727 1 1 0
0.114115 223.721 223.721 1 1 0
0.114118 223.716 223.716 1 1 0
0.11412 223.711 223.711 1 1 0
0.114123 223.705 223.705 1 1 0
0.114125 223.7 223.7 1 1 0
0.114128 223.694 223.694 1 1 0
0.11413 223.689 223.689 1 1 0
0.114133 223.684 223.684 1 1 0
0.114135 223.678 223.678 1 1 0
0.114138 223.673 223.673 1 1 0
0.114141 223.668 223.668 1 1 0
0.114143 223.662 223.662 1 1 0
0.114146 223.657 223.657 1 1 0
0.114148 223.652 223.652 1 1 0
0.114151 223.646 223.646 1 1 0
0.114153 223.641 223.641 1 1 0
0.114156 223.636 223.636 1 1 0
0.114158 223.63 223.63 1 1 0
0.114161 223.625 223.625 1 1 0
0.114164 223.62 223.62 1 1 0
0.114166 223.614 223.614 1 1 0
0.114169 223.609 223.609 1 1 0
0.114171 223.603 223.603 1 1 0
0.114174 223.598 223.598 1 1 0
0.114176 223.593 223.593 1 1 0
0.114179 223.587 223.587 1 1 0
0.114182 223.582 223.582 1 1 0
0.114184 223.577 223.577 1 1 0
0.114187 223.571 223.571 1 1 0
0.114189 223.566 223.566 1 1 0
0.114192 223.561 223.561 1 1 0
0.114194 223.555 223.555 1 1 0
0.114197 223.55 223.55 1 1 0
0.114199 223.545 223.545 1 1 0
0.114202 223.539 223.539 1 1 0
0.114205 223.534 223.534 1 1 0
0.114207 223.528 223.528 1 1 0
0.11421 223.523 223.523 1 1 0
0.114212 223.518 223.518 1 1 0
0.114215 223.512 223.512 1 1 0
0.114217 223.507 223.507 1 1 0
0.11422 223.502 223.502 1 1 0
0.114222 223.496 223.496 1 1 0
0.114225 223.491 223.491 1 1 0
0.114228 223.486 223.486 1 1 0
0.11423 223.48 223.48 1 1 0
0.114233 223.475 223.475 1 1 0
0.114235 223.469 223.469 1 1 0
0.114238 223.464 223.464 1 1 0
0.11424 223.459 223.459 1 1 0
0.114243 223.453 223.453 1 1 0
0.114246 223.448 223.448 1 1 0
0.114248 223.443 223.443 1 1 0
0.114251 223.437 223.437 1 1 0
0.114253 223.432 223.432 1 1 0
0.114256 223.427 223.427 1 1 0
0.114258 223.421 223.421 1 1 0
0.114261 223.416 223.416 1 1 0
0.114263 223.41 223.41 1 1 0
0.114266 223.405 223.405 1 1 0
0.114269 223.4 223.4 1 1 0
0.114271 223.394 223.394 1 1 0
0.114274 223.389 223.389 1 1 0
0.114276 223.384 223.384 1 1 0
0.114279 223.378 223.378 1 1 0
0.114281 223.373 223.373 1 1 0
0.114284 223.368 223.368 1 1 0
0.114287 223.362 223.362 1 1 0
0.114289 223.357 223.357 1 1 0
0.114292 223.351 223.351 1 1 0
0.114294 223.346 223.346 1 1 0
0.114297 223.341 223.341 1 1 0
0.114299 223.335 223.335 1 1 0
0.114302 223.33 223.33 1 1 0
0.114304 223.325 223.325 1 1 0
0.114307 223.319 223.319 1 1 0
0.11431 223.314 223.314 1 1 0
0.114312 223.308 223.308 1 1 0
0.114315 223.303 223.303 1 1 0
0.114317 223.298 223.298 1 1 0
0.11432 223.292 223.292 1 1 0
0.114322 223.287 223.287 1 1 0
0.114325 223.282 223.282 1 1 0
0.114328 223.276 223.276 1 1 0
0.11433 223.271 223.271 1 1 0
0.114333 223.266 223.266 1 1 0
0.114335 223.26 223.26 1 1 0
0.114338 223.255 223.255 1 1 0
0.11434 223.249 223.249 1 1 0
0.114343 223.244 223.244 1 1 0
0.114346 223.239 223.239 1 1 0
0.114348 223.233 223.233 1 1 0
0.114351 223.228 223.228 1 1 0
0.114353 223.223 223.223 1 1 0
0.114356 223.217 223.217 1 1 0
0.114358 223.212 223.212 1 1 0
0.114361 223.206 223.206 1 1 0
0.114364 223.201 223.201 1 1 0
0.114366 223.196 223.196 1 1 0
0.114369 223.19 223.19 1 1 0
0.114371 223.185 223.185 1 1 0
0.114374 223.18 223.18 1 1 0
0.114376 223.174 223.174 1 1 0
0.114379 223.169 223.169 1 1 0
0.114382 223.163 223.163 1 1 0
0.114384 223.158 223.158 1 1 0
0.114387 223.153 223.153 1 1 0
0.114389 223.147 223.147 1 1 0
0.114392 223.142 223.142 1 1 0
0.114394 223.137 223.137 1 1 0
0.114397 223.131 223.131 1 1 0
0.1144 223.126 223.126 1 1 0
0.114402 223.12 223.12 1 1 0
0.114405 223.115 223.115 1 1 0
0.114407 223.11 223.11 1 1 0
0.11441 223.104 223.104 1 1 0
0.114412 223.099 223.099 1 1 0
0.114415 223.093 223.093 1 1 0
0.114418 223.088 223.088 1 1 0
0.11442 223.083 223.083 1 1 0
0.114423 223.077 223.077 1 1 0
0.114425 223.072 223.072 1 1 0
0.114428 223.067 223.067 1 1 0
0.11443 223.061 223.061 1 1 0
0.114433 223.056 223.056 1 1 0
0.114436 223.05 223.05 1 1 0
0.114438 223.045 223.045 1 1 0
0.114441 223.04 223.04 1 1 0
0.114443 223.034 223.034 1 1 0
0.114446 223.029 223.029 1 1 0
0.114448 223.024 223.024 1 1 0
0.114451 223.018 223.018 1 1 0
0.114454 223.013 223.013 1 1 0
0.114456 223.007 223.007 1 1 0
0.114459 223.002 223.002 1 1 0
0.114461 222.997 222.997 1 1 0
0.114464 222.991 222.991 1 1 0
0.114466 222.986 222.986 1 1 0
0.114469 222.98 222.98 1 1 0
0.114472 222.975 222.975 1 1 0
0.114474 222.97 222.97 1 1 0
0.114477 222.964 222.964 1 1 0
0.114479 222.959 222.959 1 1 0
0.114482 222.954 222.954 1 1 0
0.114484 222.948 222.948 1 1 0
0.114487 222.943 222.943 1 1 0
0.11449 222.937 222.937 1 1 0
0.114492 222.932 222.932 1 1 0
0.114495 222.927 222.927 1 1 0
0.114497 222.921 222.921 1 1 0
0.1145 222.916 222.916 1 1 0
0.114503 222.91 222.91 1 1 0
0.114505 222.905 222.905 1 1 0
0.114508 222.9 222.9 1 1 0
0.11451 222.894 222.894 1 1 0
0.114513 222.889 222.889 1 1 0
0.114515 222.883 222.883 1 1 0
0.114518 222.878 222.878 1 1 0
0.114521 222.873 222.873 1 1 0
0.114523 222.867 222.867 1 1 0
0.114526 222.862 222.862 1 1 0
0.114528 222.857 222.857 1 1 0
0.114531 222.851 222.851 1 1 0
0.114533 222.846 222.846 1 1 0
0.114536 222.84 222.84 1 1 0
0.114539 222.835 222.835 1 1 0
0.114541 222.83 222.83 1 1 0
0.114544 222.824 222.824 1 1 0
0.114546 222.819 222.819 1 1 0
0.114549 222.813 222.813 1 1 0
0.114552 222.808 222.808 1 1 0
0.114554 222.803 222.803 1 1 0
0.114557 222.797 222.797 1 1 0
0.114559 222.792 222.792 1 1 0
0.114562 222.786 222.786 1 1 0
0.114564 222.781 222.781 1 1 0
0.114567 222.776 222.776 1 1 0
0.11457 222.77 222.77 1 1 0
0.114572 222.765 222.765 1 1 0
0.114575 222.759 222.759 1 1 0
0.114577 222.754 222.754 1 1 0
0.11458 222.749 222.749 1 1 0
0.114583 222.743 222.743 1 1 0
0.114585 222.738 222.738 1 1 0
0.114588 222.732 222.732 1 1 0
0.11459 222.727 222.727 1 1 0
0.114593 222.722 222.722 1 1 0
0.114595 222.716 222.716 1 1 0
0.114598 222.711 222.711 1 1 0
0.114601 222.705 222.705 1 1 0
0.114603 222.7 222.7 1 1 0
0.114606 222.695 222.695 1 1 0
0.114608 222.689 222.689 1 1 0
0.114611 222.684 222.684 1 1 0
0.114614 222.678 222.678 1 1 0
0.114616 222.673 222.673 1 1 0
0.114619 222.668 222.668 1 1 0
0.114621 222.662 222.662 1 1 0
0.114624 222.657 222.657 1 1 0
0.114626 222.651 222.651 1 1 0
0.114629 222.646 222.646 1 1 0
0.114632 222.641 222.641 1 1 0
0.114634 222.635 222.635 1 1 0
0.114637 222.63 222.63 1 1 0
0.114639 222.624 222.624 1 1 0
0.114642 222.619 222.619 1 1 0
0.114645 222.614 222.614 1 1 0
0.114647 222.608 222.608 1 1 0
0.11465 222.603 222.603 1 1 0
0.114652 222.597 222.597 1 1 0
0.114655 222.592 222.592 1 1 0
0.114658 222.587 222.587 1 1 0
0.11466 222.581 222.581 1 1 0
0.114663 222.576 222.576 1 1 0
0.114665 222.57 222.57 1 1 0
0.114668 222.565 222.565 1 1 0
0.11467 222.56 222.56 1 1 0
0.114673 222.554 222.554 1 1 0
0.114676 222.549 222.549 1 1 0
0.114678 222.543 222.543 1 1 0
0.114681 222.538 222.538 1 1 0
0.114683 222.533 222.533 1 1 0
0.114686 222.527 222.527 1 1 0
0.114689 222.522 222.522 1 1 0
0.114691 222.516 222.516 1 1 0
0.114694 222.511 222.511 1 1 0
0.114696 222.506 222.506 1 1 0
0.114699 222.5 222.5 1 1 0
0.114702 222.495 222.495 1 1 0
0.114704 222.489 222.489 1 1 0
0.114707 222.484 222.484 1 1 0
0.114709 222.479 222.479 1 1 0
0.114712 222.473 222.473 1 1 0
0.114715 222.468 222.468 1 1 0
0.114717 222.462 222.462 1 1 0
0.11472 222.457 222.457 1 1 0
0.114722 222.451 222.451 1 1 0
0.114725 222.446 222.446 1 1 0
0.114727 222.441 222.441 1 1 0
0.11473 222.435 222.435 1 1 0
0.114733 222.43 222.43 1 1 0
0.114735 222.424 222.424 1 1 0
0.114738 222.419 222.419 1 1 0
0.11474 222.414 222.414 1 1 0
0.114743 222.408 222.408 1 1 0
0.114746 222.403 222.403 1 1 0
0.114748 222.397 222.397 1 1 0
0.114751 222.392 222.392 1 1 0
0.114753 222.387 222.387 1 1 0
0.114756 222.381 222.381 1 1 0
0.114759 222.376 222.376 1 1 0
0.114761 222.37 222.37 1 1 0
0.114764 222.365 222.365 1 1 0
0.114766 222.359 222.359 1 1 0
0.114769 222.354 222.354 1 1 0
0.114772 222.349 222.349 1 1 0
0.114774 222.343 222.343 1 1 0
0.114777 222.338 222.338 1 1 0
0.114779 222.332 222.332 1 1 0
0.114782 222.327 222.327 1 1 0
0.114785 222.322 222.322 1 1 0
0.114787 222.316 222.316 1 1 0
0.11479 222.311 222.311 1 1 0
0.114792 222.305 222.305 1 1 0
0.114795 222.3 222.3 1 1 0
0.114798 222.295 222.295 1 1 0
0.1148 222.289 222.289 1 1 0
0.114803 222.284 222.284 1 1 0
0.114805 222.278 222.278 1 1 0
0.114808 222.273 222.273 1 1 0
0.114811 222.267 222.267 1 1 0
0.114813 222.262 222.262 1 1 0
0.114816 222.257 222.257 1 1 0
0.114818 222.251 222.251 1 1 0
0.114821 222.246 222.246 1 1 0
0.114824 222.24 222.24 1 1 0
0.114826 222.235 222.235 1 1 0
0.114829 222.229 222.229 1 1 0
0.114831 222.224 222.224 1 1 0
0.114834 222.219 222.219 1 1 0
0.114837 222.213 222.213 1 1 0
0.114839 222.208 222.208 1 1 0
0.114842 222.202 222.202 1 1 0
0.114844 222.197 222.197 1 1 0
0.114847 222.192 222.192 1 1 0
0.11485 222.186 222.186 1 1 0
0.114852 222.181 222.181 1 1 0
0.114855 222.175 222.175 1 1 0
0.114857 222.17 222.17 1 1 0
0.11486 222.164 222.164 1 1 0
0.114863 222.159 222.159 1 1 0
0.114865 222.154 222.154 1 1 0
0.114868 222.148 222.148 1 1 0
0.11487 222.143 222.143 1 1 0
0.114873 222.137 222.137 1 1 0
0.114876 222.132 222.132 1 1 0
0.114878 222.126 222.126 1 1 0
0.114881 222.121 222.121 1 1 0
0.114883 222.116 222.116 1 1 0
0.114886 222.11 222.11 1 1 0
0.114889 222.105 222.105 1 1 0
0.114891 222.099 222.099 1 1 0
0.114894 222.094 222.094 1 1 0
0.114896 222.088 222.088 1 1 0
0.114899 222.083 222.083 1 1 0
0.114902 222.078 222.078 1 1 0
0.114904 222.072 222.072 1 1 0
0.114907 222.067 222.067 1 1 0
0.114909 222.061 222.061 1 1 0
0.114912 222.056 222.056 1 1 0
0.114915 222.05 222.05 1 1 0
0.114917 222.045 222.045 1 1 0
0.11492 222.04 222.04 1 1 0
0.114922 222.034 222.034 1 1 0
0.114925 222.029 222.029 1 1 0
0.114928 222.023 222.023 1 1 0
0.11493 222.018 222.018 1 1 0
0.114933 222.012 222.012 1 1 0
0.114935 222.007 222.007 1 1 0
0.114938 222.002 222.002 1 1 0
0.114941 221.996 221.996 1 1 0
0.114943 221.991 221.991 1 1 0
0.114946 221.985 221.985 1 1 0
0.114948 221.98 221.98 1 1 0
0.114951 221.974 221.974 1 1 0
0.114954 221.969 221.969 1 1 0
0.114956 221.964 221.964 1 1 0
0.114959 221.958 221.958 1 1 0
0.114962 221.953 221.953 1 1 0
0.114964 221.947 221.947 1 1 0
0.114967 221.942 221.942 1 1 0
0.114969 221.936 221.936 1 1 0
0.114972 221.931 221.931 1 1 0
0.114975 221.926 221.926 1 1 0
0.114977 221.92 221.92 1 1 0
0.11498 221.915 221.915 1 1 0
0.114982 221.909 221.909 1 1 0
0.114985 221.904 221.904 1 1 0
0.114988 221.898 221.898 1 1 0
0.11499 221.893 221.893 1 1 0
0.114993 221.888 221.888 1 1 0
0.114995 221.882 221.882 1 1 0
0.114998 221.877 221.877 1 1 0
0.115001 221.871 221.871 1 1 0
0.115003 221.866 221.866 1 1 0
0.115006 221.86 221.86 1 1 0
0.115008 221.855 221.855 1 1 0
0.115011 221.849 221.849 1 1 0
0.115014 221.844 221.844 1 1 0
0.115016 221.839 221.839 1 1 0
0.115019 221.833 221.833 1 1 0
0.115022 221.828 221.828 1 1 0
0.115024 221.822 221.822 1 1 0
0.115027 221.817 221.817 1 1 0
0.115029 221.811 221.811 1 1 0
0.115032 221.806 221.806 1 1 0
0.115035 221.8 221.8 1 1 0
0.115037 221.795 221.795 1 1 0
0.11504 221.79 221.79 1 1 0
0.115042 221.784 221.784 1 1 0
0.115045 221.779 221.779 1 1 0
0.115048 221.773 221.773 1 1 0
0.11505 221.768 221.768 1 1 0
0.115053 221.762 221.762 1 1 0
0.115056 221.757 221.757 1 1 0
0.115058 221.752 221.752 1 1 0
0.115061 221.746 221.746 1 1 0
0.115063 221.741 221.741 1 1 0
0.115066 221.735 221.735 1 1 0
0.115069 221.73 221.73 1 1 0
0.115071 221.724 221.724 1 1 0
0.115074 221.719 221.719 1 1 0
0.115076 221.713 221.713 1 1 0
0.115079 221.708 221.708 1 1 0
0.115082 221.703 221.703 1 1 0
0.115084 221.697 221.697 1 1 0
0.115087 221.692 221.692 1 1 0
0.11509 221.686 221.686 1 1 0
0.115092 221.681 221.681 1 1 0
0.115095 221.675 221.675 1 1 0
0.115097 221.67 221.67 1 1 0
0.1151 221.664 221.664 1 1 0
0.115103 221.659 221.659 1 1 0
0.115105 221.654 221.654 1 1 0
0.115108 221.648 221.648 1 1 0
0.11511 221.643 221.643 1 1 0
0.115113 221.637 221.637 1 1 0
0.115116 221.632 221.632 1 1 0
0.115118 221.626 221.626 1 1 0
0.115121 221.621 221.621 1 1 0
0.115124 221.615 221.615 1 1 0
0.115126 221.61 221.61 1 1 0
0.115129 221.604 221.604 1 1 0
0.115131 221.599 221.599 1 1 0
0.115134 221.594 221.594 1 1 0
0.115137 221.588 221.588 1 1 0
0.115139 221.583 221.583 1 1 0
0.115142 221.577 221.577 1 1 0
0.115145 221.572 221.572 1 1 0
0.115147 221.566 221.566 1 1 0
0.11515 221.561 221.561 1 1 0
0.115152 221.555 221.555 1 1 0
0.115155 221.55 221.55 1 1 0
0.115158 221.544 221.544 1 1 0
0.11516 221.539 221.539 1 1 0
0.115163 221.534 221.534 1 1 0
0.115165 221.528 221.528 1 1 0
0.115168 221.523 221.523 1 1 0
0.115171 221.517 221.517 1 1 0
0.115173 221.512 221.512 1 1 0
0.115176 221.506 221.506 1 1 0
0.115179 221.501 221.501 1 1 0
0.115181 221.495 221.495 1 1 0
0.115184 221.49 221.49 1 1 0
0.115186 221.485 221.485 1 1 0
0.115189 221.479 221.479 1 1 0
0.115192 221.474 221.474 1 1 0
0.115194 221.468 221.468 1 1 0
0.115197 221.463 221.463 1 1 0
0.1152 221.457 221.457 1 1 0
0.115202 221.452 221.452 1 1 0
0.115205 221.446 221.446 1 1 0
0.115207 221.441 221.441 1 1 0
0.11521 221.435 221.435 1 1 0
0.115213 221.43 221.43 1 1 0
0.115215 221.424 221.424 1 1 0
0.115218 221.419 221.419 1 1 0
0.115221 221.414 221.414 1 1 0
0.115223 221.408 221.408 1 1 0
0.115226 221.403 221.403 1 1 0
0.115228 221.397 221.397 1 1 0
0.115231 221.392 221.392 1 1 0
0.115234 221.386 221.386 1 1 0
0.115236 221.381 221.381 1 1 0
0.115239 221.375 221.375 1 1 0
0.115242 221.37 221.37 1 1 0
0.115244 221.364 221.364 1 1 0
0.115247 221.359 221.359 1 1 0
0.115249 221.353 221.353 1 1 0
0.115252 221.348 221.348 1 1 0
0.115255 221.343 221.343 1 1 0
0.115257 221.337 221.337 1 1 0
0.11526 221.332 221.332 1 1 0
0.115263 221.326 221.326 1 1 0
0.115265 221.321 221.321 1 1 0
0.115268 221.315 221.315 1 1 0
0.11527 221.31 221.31 1 1 0
0.115273 221.304 221.304 1 1 0
0.115276 221.299 221.299 1 1 0
0.115278 221.293 221.293 1 1 0
0.115281 221.288 221.288 1 1 0
0.115284 221.282 221.282 1 1 0
0.115286 221.277 221.277 1 1 0
0.115289 221.272 221.272 1 1 0
0.115292 221.266 221.266 1 1 0
0.115294 221.261 221.261 1 1 0
0.115297 221.255 221.255 1 1 0
0.115299 221.25 221.25 1 1 0
0.115302 221.244 221.244 1 1 0
0.115305 221.239 221.239 1 1 0
0.115307 221.233 221.233 1 1 0
0.11531 221.228 221.228 1 1 0
0.115313 221.222 221.222 1 1 0
0.115315 221.217 221.217 1 1 0
0.115318 221.211 221.211 1 1 0
0.11532 221.206 221.206 1 1 0
0.115323 221.2 221.2 1 1 0
0.115326 221.195 221.195 1 1 0
0.115328 221.19 221.19 1 1 0
0.115331 221.184 221.184 1 1 0
0.115334 221.179 221.179 1 1 0
0.115336 221.173 221.173 1 1 0
0.115339 221.168 221.168 1 1 0
0.115342 221.162 221.162 1 1 0
0.115344 221.157 221.157 1 1 0
0.115347 221.151 221.151 1 1 0
0.115349 221.146 221.146 1 1 0
0.115352 221.14 221.14 1 1 0
0.115355 221.135 221.135 1 1 0
0.115357 221.129 221.129 1 1 0
0.11536 221.124 221.124 1 1 0
0.115363 221.118 221.118 1 1 0
0.115365 221.113 221.113 1 1 0
0.115368 221.107 221.107 1 1 0
0.11537 221.102 221.102 1 1 0
0.115373 221.096 221.096 1 1 0
0.115376 221.091 221.091 1 1 0
0.115378 221.086 221.086 1 1 0
0.115381 221.08 221.08 1 1 0
0.115384 221.075 221.075 1 1 0
0.115386 221.069 221.069 1 1 0
0.115389 221.064 221.064 1 1 0
0.115392 221.058 221.058 1 1 0
0.115394 221.053 221.053 1 1 0
0.115397 221.047 221.047 1 1 0
0.115399 221.042 221.042 1 1 0
0.115402 221.036 221.036 1 1 0
0.115405 221.031 221.031 1 1 0
0.115407 221.025 221.025 1 1 0
0.11541 221.02 221.02 1 1 0
0.115413 221.014 221.014 1 1 0
0.115415 221.009 221.009 1 1 0
0.115418 221.003 221.003 1 1 0
0.115421 220.998 220.998 1 1 0
0.115423 220.992 220.992 1 1 0
0.115426 220.987 220.987 1 1 0
0.115429 220.981 220.981 1 1 0
0.115431 220.976 220.976 1 1 0
0.115434 220.971 220.971 1 1 0
0.115436 220.965 220.965 1 1 0
0.115439 220.96 220.96 1 1 0
0.115442 220.954 220.954 1 1 0
0.115444 220.949 220.949 1 1 0
0.115447 220.943 220.943 1 1 0
0.11545 220.938 220.938 1 1 0
0.115452 220.932 220.932 1 1 0
0.115455 220.927 220.927 1 1 0
0.115458 220.921 220.921 1 1 0
0.11546 220.916 220.916 1 1 0
0.115463 220.91 220.91 1 1 0
0.115465 220.905 220.905 1 1 0
0.115468 220.899 220.899 1 1 0
0.115471 220.894 220.894 1 1 0
0.115473 220.888 220.888 1 1 0
0.115476 220.883 220.883 1 1 0
0.115479 220.877 220.877 1 1 0
0.115481 220.872 220.872 1 1 0
0.115484 220.866 220.866 1 1 0
0.115487 220.861 220.861 1 1 0
0.115489 220.855 220.855 1 1 0
0.115492 220.85 220.85 1 1 0
0.115495 220.844 220.844 1 1 0
0.115497 220.839 220.839 1 1 0
0.1155 220.833 220.833 1 1 0
0.115502 220.828 220.828 1 1 0
0.115505 220.822 220.822 1 1 0
0.115508 220.817 220.817 1 1 0
0.11551 220.811 220.811 1 1 0
0.115513 220.806 220.806 1 1 0
0.115516 220.8 220.8 1 1 0
0.115518 220.795 220.795 1 1 0
0.115521 220.79 220.79 1 1 0
0.115524 220.784 220.784 1 1 0
0.115526 220.779 220.779 1 1 0
0.115529 220.773 220.773 1 1 0
0.115532 220.768 220.768 1 1 0
0.115534 220.762 220.762 1 1 0
0.115537 220.757 220.757 1 1 0
0.11554 220.751 220.751 1 1 0
0.115542 220.746 220.746 1 1 0
0.115545 220.74 220.74 1 1 0
0.115547 220.735 220.735 1 1 0
0.11555 220.729 220.729 1 1 0
0.115553 220.724 220.724 1 1 0
0.115555 220.718 220.718 1 1 0
0.115558 220.713 220.713 1 1 0
0.115561 220.707 220.707 1 1 0
0.115563 220.702 220.702 1 1 0
0.115566 220.696 220.696 1 1 0
0.115569 220.691 220.691 1 1 0
0.115571 220.685 220.685 1 1 0
0.115574 220.68 220.68 1 1 0
0.115577 220.674 220.674 1 1 0
0.115579 220.669 220.669 1 1 0
0.115582 220.663 220.663 1 1 0
0.115585 220.658 220.658 1 1 0
0.115587 220.652 220.652 1 1 0
0.11559 220.647 220.647 1 1 0
0.115592 220.641 220.641 1 1 0
0.115595 220.636 220.636 1 1 0
0.115598 220.63 220.63 1 1 0
0.1156 220.625 220.625 1 1 0
0.115603 220.619 220.619 1 1 0
0.115606 220.614 220.614 1 1 0
0.115608 220.608 220.608 1 1 0
0.115611 220.603 220.603 1 1 0
0.115614 220.597 220.597 1 1 0
0.115616 220.592 220.592 1 1 0
0.115619 220.586 220.586 1 1 0
0.115622 220.581 220.581 1 1 0
0.115624 220.575 220.575 1 1 0
0.115627 220.57 220.57 1 1 0
0.11563 220.564 220.564 1 1 0
0.115632 220.559 220.559 1 1 0
0.115635 220.553 220.553 1 1 0
0.115638 220.548 220.548 1 1 0
0.11564 220.542 220.542 1 1 0
0.115643 220.537 220.537 1 1 0
0.115646 220.531 220.531 1 1 0
0.115648 220.526 220.526 1 1 0
0.115651 220.52 220.52 1 1 0
0.115653 220.515 220.515 1 1 0
0.115656 220.509 220.509 1 1 0
0.115659 220.504 220.504 1 1 0
0.115661 220.498 220.498 1 1 0
0.115664 220.493 220.493 1 1 0
0.115667 220.487 220.487 1 1 0
0.115669 220.482 220.482 1 1 0
0.115672 220.476 220.476 1 1 0
0.115675 220.471 220.471 1 1 0
0.115677 220.465 220.465 1 1 0
0.11568 220.46 220.46 1 1 0
0.115683 220.454 220.454 1 1 0
0.115685 220.449 220.449 1 1 0
0.115688 220.443 220.443 1 1 0
0.115691 220.438 220.438 1 1 0
0.115693 220.432 220.432 1 1 0
0.115696 220.427 220.427 1 1 0
0.115699 220.421 220.421 1 1 0
0.115701 220.416 220.416 1 1 0
0.115704 220.41 220.41 1 1 0
0.115707 220.405 220.405 1 1 0
0.115709 220.399 220.399 1 1 0
0.115712 220.394 220.394 1 1 0
0.115715 220.388 220.388 1 1 0
0.115717 220.383 220.383 1 1 0
0.11572 220.377 220.377 1 1 0
0.115723 220.372 220.372 1 1 0
0.115725 220.366 220.366 1 1 0
0.115728 220.361 220.361 1 1 0
0.115731 220.355 220.355 1 1 0
0.115733 220.35 220.35 1 1 0
0.115736 220.344 220.344 1 1 0
0.115738 220.338 220.338 1 1 0
0.115741 220.333 220.333 1 1 0
0.115744 220.327 220.327 1 1 0
0.115746 220.322 220.322 1 1 0
0.115749 220.316 220.316 1 1 0
0.115752 220.311 220.311 1 1 0
0.115754 220.305 220.305 1 1 0
0.115757 220.3 220.3 1 1 0
0.11576 220.294 220.294 1 1 0
0.115762 220.289 220.289 1 1 0
0.115765 220.283 220.283 1 1 0
0.115768 220.278 220.278 1 1 0
0.11577 220.272 220.272 1 1 0
0.115773 220.267 220.267 1 1 0
0.115776 220.261 220.261 1 1 0
0.115778 220.256 220.256 1 1 0
0.115781 220.25 220.25 1 1 0
0.115784 220.245 220.245 1 1 0
0.115786 220.239 220.239 1 1 0
0.115789 220.234 220.234 1 1 0
0.115792 220.228 220.228 1 1 0
0.115794 220.223 220.223 1 1 0
0.115797 220.217 220.217 1 1 0
0.1158 220.212 220.212 1 1 0
0.115802 220.206 220.206 1 1 0
0.115805 220.201 220.201 1 1 0
0.115808 220.195 220.195 1 1 0
0.11581 220.19 220.19 1 1 0
0.115813 220.184 220.184 1 1 0
0.115816 220.179 220.179 1 1 0
0.115818 220.173 220.173 1 1 0
0.115821 220.168 220.168 1 1 0
0.115824 220.162 220.162 1 1 0
0.115826 220.156 220.156 1 1 0
0.115829 220.151 220.151 1 1 0
0.115832 220.145 220.145 1 1 0
0.115834 220.14 220.14 1 1 0
0.115837 220.134 220.134 1 1 0
0.11584 220.129 220.129 1 1 0
0.115842 220.123 220.123 1 1 0
0.115845 220.118 220.118 1 1 0
0.115848 220.112 220.112 1 1 0
0.11585 220.107 220.107 1 1 0
0.115853 220.101 220.101 1 1 0
0.115856 220.096 220.096 1 1 0
0.115858 220.09 220.09 1 1 0
0.115861 220.085 220.085 1 1 0
0.115864 220.079 220.079 1 1 0
0.115866 220.074 220.074 1 1 0
0.115869 220.068 220.068 1 1 0
0.115872 220.063 220.063 1 1 0
0.115874 220.057 220.057 1 1 0
0.115877 220.052 220.052 1 1 0
0.11588 220.046 220.046 1 1 0
0.115882 220.04 220.04 1 1 0
0.115885 220.035 220.035 1 1 0
0.115888 220.029 220.029 1 1 0
0.11589 220.024 220.024 1 1 0
0.115893 220.018 220.018 1 1 0
0.115896 220.013 220.013 1 1 0
0.115898 220.007 220.007 1 1 0
0.115901 220.002 220.002 1 1 0
0.115904 219.996 219.996 1 1 0
0.115906 219.991 219.991 1 1 0
0.115909 219.985 219.985 1 1 0
0.115912 219.98 219.98 1 1 0
0.115914 219.974 219.974 1 1 0
0.115917 219.969 219.969 1 1 0
0.11592 219.963 219.963 1 1 0
0.115922 219.958 219.958 1 1 0
0.115925 219.952 219.952 1 1 0
0.115928 219.946 219.946 1 1 0
0.11593 219.941 219.941 1 1 0
0.115933 219.935 219.935 1 1 0
0.115936 219.93 219.93 1 1 0
0.115938 219.924 219.924 1 1 0
0.115941 219.919 219.919 1 1 0
0.115944 219.913 219.913 1 1 0
0.115947 219.908 219.908 1 1 0
0.115949 219.902 219.902 1 1 0
0.115952 219.897 219.897 1 1 0
0.115955 219.891 219.891 1 1 0
0.115957 219.886 219.886 1 1 0
0.11596 219.88 219.88 1 1 0
0.115963 219.875 219.875 1 1 0
0.115965 219.869 219.869 1 1 0
0.115968 219.864 219.864 1 1 0
0.115971 219.858 219.858 1 1 0
0.115973 219.852 219.852 1 1 0
0.115976 219.847 219.847 1 1 0
0.115979 219.841 219.841 1 1 0
0.115981 219.836 219.836 1 1 0
0.115984 219.83 219.83 1 1 0
0.115987 219.825 219.825 1 1 0
0.115989 219.819 219.819 1 1 0
0.115992 219.814 219.814 1 1 0
0.115995 219.808 219.808 1 1 0
0.115997 219.803 219.803 1 1 0
0.116 219.797 219.797 1 1 0
0.116003 219.792 219.792 1 1 0
0.116005 219.786 219.786 1 1 0
0.116008 219.78 219.78 1 1 0
0.116011 219.775 219.775 1 1 0
0.116013 219.769 219.769 1 1 0
0.116016 219.764 219.764 1 1 0
0.116019 219.758 219.758 1 1 0
0.116021 219.753 219.753 1 1 0
0.116024 219.747 219.747 1 1 0
0.116027 219.742 219.742 1 1 0
0.116029 219.736 219.736 1 1 0
0.116032 219.731 219.731 1 1 0
0.116035 219.725 219.725 1 1 0
0.116038 219.72 219.72 1 1 0
0.11604 219.714 219.714 1 1 0
0.116043 219.708 219.708 1 1 0
0.116046 219.703 219.703 1 1 0
0.116048 219.697 219.697 1 1 0
0.116051 219.692 219.692 1 1 0
0.116054 219.686 219.686 1 1 0
0.116056 219.681 219.681 1 1 0
0.116059 219.675 219.675 1 1 0
0.116062 219.67 219.67 1 1 0
0.116064 219.664 219.664 1 1 0
0.116067 219.659 219.659 1 1 0
0.11607 219.653 219.653 1 1 0
0.116072 219.647 219.647 1 1 0
0.116075 219.642 219.642 1 1 0
0.116078 219.636 219.636 1 1 0
0.11608 219.631 219.631 1 1 0
0.116083 219.625 219.625 1 1 0
0.116086 219.62 219.62 1 1 0
0.116088 219.614 219.614 1 1 0
0.116091 219.609 219.609 1 1 0
0.116094 219.603 219.603 1 1 0
0.116097 219.598 219.598 1 1 0
0.116099 219.592 219.592 1 1 0
0.116102 219.586 219.586 1 1 0
0.116105 219.581 219.581 1 1 0
0.116107 219.575 219.575 1 1 0
0.11611 219.57 219.57 1 1 0
0.116113 219.564 219.564 1 1 0
0.116115 219.559 219.559 1 1 0
0.116118 219.553 219.553 1 1 0
0.116121 219.548 219.548 1 1 0
0.116123 219.542 219.542 1 1 0
0.116126 219.536 219.536 1 1 0
0.116129 219.531 219.531 1 1 0
0.116131 219.525 219.525 1 1 0
0.116134 219.52 219.52 1 1 0
0.116137 219.514 219.514 1 1 0
0.11614 219.509 219.509 1 1 0
0.116142 219.503 219.503 1 1 0
0.116145 219.498 219.498 1 1 0
0.116148 219.492 219.492 1 1 0
0.11615 219.486 219.486 1 1 0
0.116153 219.481 219.481 1 1 0
0.116156 219.475 219.475 1 1 0
0.116158 219.47 219.47 1 1 0
0.116161 219.464 219.464 1 1 0
0.116164 219.459 219.459 1 1 0
0.116166 219.453 219.453 1 1 0
0.116169 219.448 219.448 1 1 0
0.116172 219.442 219.442 1 1 0
0.116174 219.436 219.436 1 1 0
0.116177 219.431 219.431 1 1 0
0.11618 219.425 219.425 1 1 0
0.116183 219.42 219.42 1 1 0
0.116185 219.414 219.414 1 1 0
0.116188 219.409 219.409 1 1 0
0.116191 219.403 219.403 1 1 0
0.116193 219.398 219.398 1 1 0
0.116196 219.392 219.392 1 1 0
0.116199 219.386 219.386 1 1 0
0.116201 219.381 219.381 1 1 0
0.116204 219.375 219.375 1 1 0
0.116207 219.37 219.37 1 1 0
0.116209 219.364 219.364 1 1 0
0.116212 219.359 219.359 1 1 0
0.116215 219.353 219.353 1 1 0
0.116218 219.348 219.348 1 1 0
0.11622 219.342 219.342 1 1 0
0.116223 219.336 219.336 1 1 0
0.116226 219.331 219.331 1 1 0
0.116228 219.325 219.325 1 1 0
0.116231 219.32 219.32 1 1 0
0.116234 219.314 219.314 1 1 0
0.116236 219.309 219.309 1 1 0
0.116239 219.303 219.303 1 1 0
0.116242 219.297 219.297 1 1 0
0.116244 219.292 219.292 1 1 0
0.116247 219.286 219.286 1 1 0
0.11625 219.281 219.281 1 1 0
0.116253 219.275 219.275 1 1 0
0.116255 219.27 219.27 1 1 0
0.116258 219.264 219.264 1 1 0
0.116261 219.259 219.259 1 1 0
0.116263 219.253 219.253 1 1 0
0.116266 219.247 219.247 1 1 0
0.116269 219.242 219.242 1 1 0
0.116271 219.236 219.236 1 1 0
0.116274 219.231 219.231 1 1 0
0.116277 219.225 219.225 1 1 0
0.116279 219.22 219.22 1 1 0
0.116282 219.214 219.214 1 1 0
0.116285 219.208 219.208 1 1 0
0.116288 219.203 219.203 1 1 0
0.11629 219.197 219.197 1 1 0
0.116293 219.192 219.192 1 1 0
0.116296 219.186 219.186 1 1 0
0.116298 219.181 219.181 1 1 0
0.116301 219.175 219.175 1 1 0
0.116304 219.169 219.169 1 1 0
0.116306 219.164 219.164 1 1 0
0.116309 219.158 219.158 1 1 0
0.116312 219.153 219.153 1 1 0
0.116315 219.147 219.147 1 1 0
0.116317 219.142 219.142 1 1 0
0.11632 219.136 219.136 1 1 0
0.116323 219.13 219.13 1 1 0
0.116325 219.125 219.125 1 1 0
0.116328 219.119 219.119 1 1 0
0.116331 219.114 219.114 1 1 0
0.116333 219.108 219.108 1 1 0
0.116336 219.103 219.103 1 1 0
0.116339 219.097 219.097 1 1 0
0.116342 219.091 219.091 1 1 0
0.116344 219.086 219.086 1 1 0
0.116347 219.08 219.08 1 1 0
0.11635 219.075 219.075 1 1 0
0.116352 219.069 219.069 1 1 0
0.116355 219.064 219.064 1 1 0
0.116358 219.058 219.058 1 1 0
0.11636 219.052 219.052 1 1 0
0.116363 219.047 219.047 1 1 0
0.116366 219.041 219.041 1 1 0
0.116369 219.036 219.036 1 1 0
0.116371 219.03 219.03 1 1 0
0.116374 219.025 219.025 1 1 0
0.116377 219.019 219.019 1 1 0
0.116379 219.013 219.013 1 1 0
0.116382 219.008 219.008 1 1 0
0.116385 219.002 219.002 1 1 0
0.116388 218.997 218.997 1 1 0
0.11639 218.991 218.991 1 1 0
0.116393 218.986 218.986 1 1 0
0.116396 218.98 218.98 1 1 0
0.116398 218.974 218.974 1 1 0
0.116401 218.969 218.969 1 1 0
0.116404 218.963 218.963 1 1 0
0.116406 218.958 218.958 1 1 0
0.116409 218.952 218.952 1 1 0
0.116412 218.946 218.946 1 1 0
0.116415 218.941 218.941 1 1 0
0.116417 218.935 218.935 1 1 0
0.11642 218.93 218.93 1 1 0
0.116423 218.924 218.924 1 1 0
0.116425 218.919 218.919 1 1 0
0.116428 218.913 218.913 1 1 0
0.116431 218.907 218.907 1 1 0
0.116434 218.902 218.902 1 1 0
0.116436 218.896 218.896 1 1 0
0.116439 218.891 218.891 1 1 0
0.116442 218.885 218.885 1 1 0
0.116444 218.879 218.879 1 1 0
0.116447 218.874 218.874 1 1 0
0.11645 218.868 218.868 1 1 0
0.116452 218.863 218.863 1 1 0
0.116455 218.857 218.857 1 1 0
0.116458 218.852 218.852 1 1 0
0.116461 218.846 218.846 1 1 0
0.116463 218.84 218.84 1 1 0
0.116466 218.835 218.835 1 1 0
0.116469 218.829 218.829 1 1 0
0.116471 218.824 218.824 1 1 0
0.116474 218.818 218.818 1 1 0
0.116477 218.812 218.812 1 1 0
0.11648 218.807 218.807 1 1 0
0.116482 218.801 218.801 1 1 0
0.116485 218.796 218.796 1 1 0
0.116488 218.79 218.79 1 1 0
0.11649 218.784 218.784 1 1 0
0.116493 218.779 218.779 1 1 0
0.116496 218.773 218.773 1 1 0
0.116499 218.768 218.768 1 1 0
0.116501 218.762 218.762 1 1 0
0.116504 218.757 218.757 1 1 0
0.116507 218.751 218.751 1 1 0
0.116509 218.745 218.745 1 1 0
0.116512 218.74 218.74 1 1 0
0.116515 218.734 218.734 1 1 0
0.116518 218.729 218.729 1 1 0
0.11652 218.723 218.723 1 1 0
0.116523 218.717 218.717 1 1 0
0.116526 218.712 218.712 1 1 0
0.116528 218.706 218.706 1 1 0
0.116531 218.701 218.701 1 1 0
0.116534 218.695 218.695 1 1 0
0.116537 218.689 218.689 1 1 0
0.116539 218.684 218.684 1 1 0
0.116542 218.678 218.678 1 1 0
0.116545 218.673 218.673 1 1 0
0.116547 218.667 218.667 1 1 0
0.11655 218.661 218.661 1 1 0
0.116553 218.656 218.656 1 1 0
0.116556 218.65 218.65 1 1 0
0.116558 218.645 218.645 1 1 0
0.116561 218.639 218.639 1 1 0
0.116564 218.633 218.633 1 1 0
0.116566 218.628 218.628 1 1 0
0.116569 218.622 218.622 1 1 0
0.116572 218.617 218.617 1 1 0
0.116575 218.611 218.611 1 1 0
0.116577 218.605 218.605 1 1 0
0.11658 218.6 218.6 1 1 0
0.116583 218.594 218.594 1 1 0
0.116585 218.589 218.589 1 1 0
0.116588 218.583 218.583 1 1 0
0.116591 218.577 218.577 1 1 0
0.116594 218.572 218.572 1 1 0
0.116596 218.566 218.566 1 1 0
0.116599 218.561 218.561 1 1 0
0.116602 218.555 218.555 1 1 0
0.116604 218.549 218.549 1 1 0
0.116607 218.544 218.544 1 1 0
0.11661 218.538 218.538 1 1 0
0.116613 218.533 218.533 1 1 0
0.116615 218.527 218.527 1 1 0
0.116618 218.521 218.521 1 1 0
0.116621 218.516 218.516 1 1 0
0.116623 218.51 218.51 1 1 0
0.116626 218.505 218.505 1 1 0
0.116629 218.499 218.499 1 1 0
0.116632 218.493 218.493 1 1 0
0.116634 218.488 218.488 1 1 0
0.116637 218.482 218.482 1 1 0
0.11664 218.477 218.477 1 1 0
0.116643 218.471 218.471 1 1 0
0.116645 218.465 218.465 1 1 0
0.116648 218.46 218.46 1 1 0
0.116651 218.454 218.454 1 1 0
0.116653 218.449 218.449 1 1 0
0.116656 218.443 218.443 1 1 0
0.116659 218.437 218.437 1 1 0
0.116662 218.432 218.432 1 1 0
0.116664 218.426 218.426 1 1 0
0.116667 218.421 218.421 1 1 0
0.11667 218.415 218.415 1 1 0
0.116672 218.409 218.409 1 1 0
0.116675 218.404 218.404 1 1 0
0.116678 218.398 218.398 1 1 0
0.116681 218.392 218.392 1 1 0
0.116683 218.387 218.387 1 1 0
0.116686 218.381 218.381 1 1 0
0.116689 218.376 218.376 1 1 0
0.116692 218.37 218.37 1 1 0
0.116694 218.364 218.364 1 1 0
0.116697 218.359 218.359 1 1 0
0.1167 218.353 218.353 1 1 0
0.116702 218.348 218.348 1 1 0
0.116705 218.342 218.342 1 1 0
0.116708 218.336 218.336 1 1 0
0.116711 218.331 218.331 1 1 0
0.116713 218.325 218.325 1 1 0
0.116716 218.32 218.32 1 1 0
0.116719 218.314 218.314 1 1 0
0.116722 218.308 218.308 1 1 0
0.116724 218.303 218.303 1 1 0
0.116727 218.297 218.297 1 1 0
0.11673 218.291 218.291 1 1 0
0.116732 218.286 218.286 1 1 0
0.116735 218.28 218.28 1 1 0
0.116738 218.275 218.275 1 1 0
0.116741 218.269 218.269 1 1 0
0.116743 218.263 218.263 1 1 0
0.116746 218.258 218.258 1 1 0
0.116749 218.252 218.252 1 1 0
0.116752 218.247 218.247 1 1 0
0.116754 218.241 218.241 1 1 0
0.116757 218.235 218.235 1 1 0
0.11676 218.23 218.23 1 1 0
0.116763 218.224 218.224 1 1 0
0.116765 218.218 218.218 1 1 0
0.116768 218.213 218.213 1 1 0
0.116771 218.207 218.207 1 1 0
0.116773 218.202 218.202 1 1 0
0.116776 218.196 218.196 1 1 0
0.116779 218.19 218.19 1 1 0
0.116782 218.185 218.185 1 1 0
0.116784 218.179 218.179 1 1 0
0.116787 218.173 218.173 1 1 0
0.11679 218.168 218.168 1 1 0
0.116793 218.162 218.162 1 1 0
0.116795 218.157 218.157 1 1 0
0.116798 218.151 218.151 1 1 0
0.116801 218.145 218.145 1 1 0
0.116803 218.14 218.14 1 1 0
0.116806 218.134 218.134 1 1 0
0.116809 218.129 218.129 1 1 0
0.116812 218.123 218.123 1 1 0
0.116814 218.117 218.117 1 1 0
0.116817 218.112 218.112 1 1 0
0.11682 218.106 218.106 1 1 0
0.116823 218.1 218.1 1 1 0
0.116825 218.095 218.095 1 1 0
0.116828 218.089 218.089 1 1 0
0.116831 218.084 218.084 1 1 0
0.116834 218.078 218.078 1 1 0
0.116836 218.072 218.072 1 1 0
0.116839 218.067 218.067 1 1 0
0.116842 218.061 218.061 1 1 0
0.116845 218.055 218.055 1 1 0
0.116847 218.05 218.05 1 1 0
0.11685 218.044 218.044 1 1 0
0.116853 218.039 218.039 1 1 0
0.116855 218.033 218.033 1 1 0
0.116858 218.027 218.027 1 1 0
0.116861 218.022 218.022 1 1 0
0.116864 218.016 218.016 1 1 0
0.116866 218.01 218.01 1 1 0
0.116869 218.005 218.005 1 1 0
0.116872 217.999 217.999 1 1 0
0.116875 217.993 217.993 1 1 0
0.116877 217.988 217.988 1 1 0
0.11688 217.982 217.982 1 1 0
0.116883 217.977 217.977 1 1 0
0.116886 217.971 217.971 1 1 0
0.116888 217.965 217.965 1 1 0
0.116891 217.96 217.96 1 1 0
0.116894 217.954 217.954 1 1 0
0.116897 217.948 217.948 1 1 0
0.116899 217.943 217.943 1 1 0
0.116902 217.937 217.937 1 1 0
0.116905 217.932 217.932 1 1 0
0.116907 217.926 217.926 1 1 0
0.11691 217.92 217.92 1 1 0
0.116913 217.915 217.915 1 1 0
0.116916 217.909 217.909 1 1 0
0.116918 217.903 217.903 1 1 0
0.116921 217.898 217.898 1 1 0
0.116924 217.892 217.892 1 1 0
0.116927 217.886 217.886 1 1 0
0.116929 217.881 217.881 1 1 0
0.116932 217.875 217.875 1 1 0
0.116935 217.87 217.87 1 1 0
0.116938 217.864 217.864 1 1 0
0.11694 217.858 217.858 1 1 0
0.116943 217.853 217.853 1 1 0
0.116946 217.847 217.847 1 1 0
0.116949 217.841 217.841 1 1 0
0.116951 217.836 217.836 1 1 0
0.116954 217.83 217.83 1 1 0
0.116957 217.824 217.824 1 1 0
0.11696 217.819 217.819 1 1 0
0.116962 217.813 217.813 1 1 0
0.116965 217.808 217.808 1 1 0
0.116968 217.802 217.802 1 1 0
0.116971 217.796 217.796 1 1 0
0.116973 217.791 217.791 1 1 0
0.116976 217.785 217.785 1 1 0
0.116979 217.779 217.779 1 1 0
0.116982 217.774 217.774 1 1 0
0.116984 217.768 217.768 1 1 0
0.116987 217.762 217.762 1 1 0
0.11699 217.757 217.757 1 1 0
0.116993 217.751 217.751 1 1 0
0.116995 217.745 217.745 1 1 0
0.116998 217.74 217.74 1 1 0
0.117001 217.734 217.734 1 1 0
0.117004 217.729 217.729 1 1 0
0.117006 217.723 217.723 1 1 0
0.117009 217.717 217.717 1 1 0
0.117012 217.712 217.712 1 1 0
0.117015 217.706 217.706 1 1 0
0.117017 217.7 217.7 1 1 0
0.11702 217.695 217.695 1 1 0
0.117023 217.689 217.689 1 1 0
0.117026 217.683 217.683 1 1 0
0.117028 217.678 217.678 1 1 0
0.117031 217.672 217.672 1 1 0
0.117034 217.666 217.666 1 1 0
0.117037 217.661 217.661 1 1 0
0.117039 217.655 217.655 1 1 0
0.117042 217.649 217.649 1 1 0
0.117045 217.644 217.644 1 1 0
0.117048 217.638 217.638 1 1 0
0.11705 217.633 217.633 1 1 0
0.117053 217.627 217.627 1 1 0
0.117056 217.621 217.621 1 1 0
0.117059 217.616 217.616 1 1 0
0.117061 217.61 217.61 1 1 0
0.117064 217.604 217.604 1 1 0
0.117067 217.599 217.599 1 1 0
0.11707 217.593 217.593 1 1 0
0.117072 217.587 217.587 1 1 0
0.117075 217.582 217.582 1 1 0
0.117078 217.576 217.576 1 1 0
0.117081 217.57 217.57 1 1 0
0.117083 217.565 217.565 1 1 0
0.117086 217.559 217.559 1 1 0
0.117089 217.553 217.553 1 1 0
0.117092 217.548 217.548 1 1 0
0.117094 217.542 217.542 1 1 0
0.117097 217.536 217.536 1 1 0
0.1171 217.531 217.531 1 1 0
0.117103 217.525 217.525 1 1 0
0.117105 217.519 217.519 1 1 0
0.117108 217.514 217.514 1 1 0
0.117111 217.508 217.508 1 1 0
0.117114 217.503 217.503 1 1 0
0.117116 217.497 217.497 1 1 0
0.117119 217.491 217.491 1 1 0
0.117122 217.486 217.486 1 1 0
0.117125 217.48 217.48 1 1 0
0.117127 217.474 217.474 1 1 0
0.11713 217.469 217.469 1 1 0
0.117133 217.463 217.463 1 1 0
0.117136 217.457 217.457 1 1 0
0.117138 217.452 217.452 1 1 0
0.117141 217.446 217.446 1 1 0
0.117144 217.44 217.44 1 1 0
0.117147 217.435 217.435 1 1 0
0.117149 217.429 217.429 1 1 0
0.117152 217.423 217.423 1 1 0
0.117155 217.418 217.418 1 1 0
0.117158 217.412 217.412 1 1 0
0.11716 217.406 217.406 1 1 0
0.117163 217.401 217.401 1 1 0
0.117166 217.395 217.395 1 1 0
0.117169 217.389 217.389 1 1 0
0.117172 217.384 217.384 1 1 0
0.117174 217.378 217.378 1 1 0
0.117177 217.372 217.372 1 1 0
0.11718 217.367 217.367 1 1 0
0.117183 217.361 217.361 1 1 0
0.117185 217.355 217.355 1 1 0
0.117188 217.35 217.35 1 1 0
0.117191 217.344 217.344 1 1 0
0.117194 217.338 217.338 1 1 0
0.117196 217.333 217.333 1 1 0
0.117199 217.327 217.327 1 1 0
0.117202 217.321 217.321 1 1 0
0.117205 217.316 217.316 1 1 0
0.117207 217.31 217.31 1 1 0
0.11721 217.304 217.304 1 1 0
0.117213 217.299 217.299 1 1 0
0.117216 217.293 217.293 1 1 0
0.117218 217.287 217.287 1 1 0
0.117221 217.282 217.282 1 1 0
0.117224 217.276 217.276 1 1 0
0.117227 217.27 217.27 1 1 0
0.117229 217.265 217.265 1 1 0
0.117232 217.259 217.259 1 1 0
0.117235 217.253 217.253 1 1 0
0.117238 217.248 217.248 1 1 0
0.117241 217.242 217.242 1 1 0
0.117243 217.236 217.236 1 1 0
0.117246 217.231 217.231 1 1 0
0.117249 217.225 217.225 1 1 0
0.117252 217.219 217.219 1 1 0
0.117254 217.214 217.214 1 1 0
0.117257 217.208 217.208 1 1 0
0.11726 217.202 217.202 1 1 0
0.117263 217.197 217.197 1 1 0
0.117265 217.191 217.191 1 1 0
0.117268 217.185 217.185 1 1 0
0.117271 217.18 217.18 1 1 0
0.117274 217.174 217.174 1 1 0
0.117277 217.168 217.168 1 1 0
0.117279 217.163 217.163 1 1 0
0.117282 217.157 217.157 1 1 0
0.117285 217.151 217.151 1 1 0
0.117288 217.146 217.146 1 1 0
0.11729 217.14 217.14 1 1 0
0.117293 217.134 217.134 1 1 0
0.117296 217.129 217.129 1 1 0
0.117299 217.123 217.123 1 1 0
0.117301 217.117 217.117 1 1 0
0.117304 217.112 217.112 1 1 0
0.117307 217.106 217.106 1 1 0
0.11731 217.1 217.1 1 1 0
0.117313 217.094 217.094 1 1 0
0.117315 217.089 217.089 1 1 0
0.117318 217.083 217.083 1 1 0
0.117321 217.077 217.077 1 1 0
0.117324 217.072 217.072 1 1 0
0.117326 217.066 217.066 1 1 0
0.117329 217.06 217.06 1 1 0
0.117332 217.055 217.055 1 1 0
0.117335 217.049 217.049 1 1 0
0.117337 217.043 217.043 1 1 0
0.11734 217.038 217.038 1 1 0
0.117343 217.032 217.032 1 1 0
0.117346 217.026 217.026 1 1 0
0.117349 217.021 217.021 1 1 0
0.117351 217.015 217.015 1 1 0
0.117354 217.009 217.009 1 1 0
0.117357 217.004 217.004 1 1 0
0.11736 216.998 216.998 1 1 0
0.117362 216.992 216.992 1 1 0
0.117365 216.987 216.987 1 1 0
0.117368 216.981 216.981 1 1 0
0.117371 216.975 216.975 1 1 0
0.117373 216.969 216.969 1 1 0
0.117376 216.964 216.964 1 1 0
0.117379 216.958 216.958 1 1 0
0.117382 216.952 216.952 1 1 0
0.117385 216.947 216.947 1 1 0
0.117387 216.941 216.941 1 1 0
0.11739 216.935 216.935 1 1 0
0.117393 216.93 216.93 1 1 0
0.117396 216.924 216.924 1 1 0
0.117398 216.918 216.918 1 1 0
0.117401 216.913 216.913 1 1 0
0.117404 216.907 216.907 1 1 0
0.117407 216.901 216.901 1 1 0
0.11741 216.896 216.896 1 1 0
0.117412 216.89 216.89 1 1 0
0.117415 216.884 216.884 1 1 0
0.117418 216.878 216.878 1 1 0
0.117421 216.873 216.873 1 1 0
0.117423 216.867 216.867 1 1 0
0.117426 216.861 216.861 1 1 0
0.117429 216.856 216.856 1 1 0
0.117432 216.85 216.85 1 1 0
0.117435 216.844 216.844 1 1 0
0.117437 216.839 216.839 1 1 0
0.11744 216.833 216.833 1 1 0
0.117443 216.827 216.827 1 1 0
0.117446 216.822 216.822 1 1 0
0.117448 216.816 216.816 1 1 0
0.117451 216.81 216.81 1 1 0
0.117454 216.804 216.804 1 1 0
0.117457 216.799 216.799 1 1 0
0.11746 216.793 216.793 1 1 0
0.117462 216.787 216.787 1 1 0
0.117465 216.782 216.782 1 1 0
0.117468 216.776 216.776 1 1 0
0.117471 216.77 216.77 1 1 0
0.117473 216.765 216.765 1 1 0
0.117476 216.759 216.759 1 1 0
0.117479 216.753 216.753 1 1 0
0.117482 216.748 216.748 1 1 0
0.117485 216.742 216.742 1 1 0
0.117487 216.736 216.736 1 1 0
0.11749 216.73 216.73 1 1 0
0.117493 216.725 216.725 1 1 0
0.117496 216.719 216.719 1 1 0
0.117499 216.713 216.713 1 1 0
0.117501 216.708 216.708 1 1 0
0.117504 216.702 216.702 1 1 0
0.117507 216.696 216.696 1 1 0
0.11751 216.691 216.691 1 1 0
0.117512 216.685 216.685 1 1 0
0.117515 216.679 216.679 1 1 0
0.117518 216.673 216.673 1 1 0
0.117521 216.668 216.668 1 1 0
0.117524 216.662 216.662 1 1 0
0.117526 216.656 216.656 1 1 0
0.117529 216.651 216.651 1 1 0
0.117532 216.645 216.645 1 1 0
0.117535 216.639 216.639 1 1 0
0.117538 216.634 216.634 1 1 0
0.11754 216.628 216.628 1 1 0
0.117543 216.622 216.622 1 1 0
0.117546 216.616 216.616 1 1 0
0.117549 216.611 216.611 1 1 0
0.117551 216.605 216.605 1 1 0
0.117554 216.599 216.599 1 1 0
0.117557 216.594 216.594 1 1 0
0.11756 216.588 216.588 1 1 0
0.117563 216.582 216.582 1 1 0
0.117565 216.577 216.577 1 1 0
0.117568 216.571 216.571 1 1 0
0.117571 216.565 216.565 1 1 0
0.117574 216.559 216.559 1 1 0
0.117577 216.554 216.554 1 1 0
0.117579 216.548 216.548 1 1 0
0.117582 216.542 216.542 1 1 0
0.117585 216.537 216.537 1 1 0
0.117588 216.531 216.531 1 1 0
0.11759 216.525 216.525 1 1 0
0.117593 216.519 216.519 1 1 0
0.117596 216.514 216.514 1 1 0
0.117599 216.508 216.508 1 1 0
0.117602 216.502 216.502 1 1 0
0.117604 216.497 216.497 1 1 0
0.117607 216.491 216.491 1 1 0
0.11761 216.485 216.485 1 1 0
0.117613 216.479 216.479 1 1 0
0.117616 216.474 216.474 1 1 0
0.117618 216.468 216.468 1 1 0
0.117621 216.462 216.462 1 1 0
0.117624 216.457 216.457 1 1 0
0.117627 216.451 216.451 1 1 0
0.11763 216.445 216.445 1 1 0
0.117632 216.439 216.439 1 1 0
0.117635 216.434 216.434 1 1 0
0.117638 216.428 216.428 1 1 0
0.117641 216.422 216.422 1 1 0
0.117644 216.417 216.417 1 1 0
0.117646 216.411 216.411 1 1 0
0.117649 216.405 216.405 1 1 0
0.117652 216.399 216.399 1 1 0
0.117655 216.394 216.394 1 1 0
0.117657 216.388 216.388 1 1 0
