0.120658 62.5124 62.5124 1 1 0
0.120661 62.5128 62.5128 1 1 0
0.120664 62.5132 62.5132 1 1 0
0.120667 62.5137 62.5137 1 1 0
0.12067 62.5141 62.5141 1 1 0
0.120673 62.5146 62.5146 1 1 0
0.120676 62.515 62.515 1 1 0
0.120679 62.5154 62.5154 1 1 0
0.120682 62.5159 62.5159 1 1 0
0.120685 62.5163 62.5163 1 1 0
0.120688 62.5168 62.5168 1 1 0
0.120692 62.5172 62.5172 1 1 0
0.120695 62.5177 62.5177 1 1 0
0.120698 62.5181 62.5181 1 1 0
0.120701 62.5185 62.5185 1 1 0
0.120704 62.519 62.519 1 1 0
0.120707 62.5194 62.5194 1 1 0
0.12071 62.5199 62.5199 1 1 0
0.120713 62.5203 62.5203 1 1 0
0.120716 62.5207 62.5207 1 1 0
0.120719 62.5212 62.5212 1 1 0
0.120722 62.5216 62.5216 1 1 0
0.120725 62.5221 62.5221 1 1 0
0.120728 62.5225 62.5225 1 1 0
0.120731 62.5229 62.5229 1 1 0
0.120734 62.5234 62.5234 1 1 0
0.120737 62.5238 62.5238 1 1 0
0.12074 62.5243 62.5243 1 1 0
0.120743 62.5247 62.5247 1 1 0
0.120746 62.5251 62.5251 1 1 0
0.120749 62.5256 62.5256 1 1 0
0.120752 62.526 62.526 1 1 0
0.120755 62.5265 62.5265 1 1 0
0.120758 62.5269 62.5269 1 1 0
0.120761 62.5274 62.5274 1 1 0
0.120764 62.5278 62.5278 1 1 0
0.120767 62.5282 62.5282 1 1 0
0.12077 62.5287 62.5287 1 1 0
0.120773 62.5291 62.5291 1 1 0
0.120776 62.5296 62.5296 1 1 0
0.12078 62.53 62.53 1 1 0
0.120783 62.5304 62.5304 1 1 0
0.120786 62.5309 62.5309 1 1 0
0.120789 62.5313 62.5313 1 1 0
0.120792 62.5318 62.5318 1 1 0
0.120795 62.5322 62.5322 1 1 0
0.120798 62.5326 62.5326 1 1 0
0.120801 62.5331 62.5331 1 1 0
0.120804 62.5335 62.5335 1 1 0
0.120807 62.534 62.534 1 1 0
0.12081 62.5344 62.5344 1 1 0
0.120813 62.5349 62.5349 1 1 0
0.120816 62.5353 62.5353 1 1 0
0.120819 62.5357 62.5357 1 1 0
0.120822 62.5362 62.5362 1 1 0
0.120825 62.5366 62.5366 1 1 0
0.120828 62.5371 62.5371 1 1 0
0.120831 62.5375 62.5375 1 1 0
0.120834 62.5379 62.5379 1 1 0
0.120837 62.5384 62.5384 1 1 0
0.12084 62.5388 62.5388 1 1 0
0.120843 62.5393 62.5393 1 1 0
0.120846 62.5397 62.5397 1 1 0
0.120849 62.5401 62.5401 1 1 0
0.120853 62.5406 62.5406 1 1 0
0.120856 62.541 62.541 1 1 0
0.120859 62.5415 62.5415 1 1 0
0.120862 62.5419 62.5419 1 1 0
0.120865 62.5423 62.5423 1 1 0
0.120868 62.5428 62.5428 1 1 0
0.120871 62.5432 62.5432 1 1 0
0.120874 62.5437 62.5437 1 1 0
0.120877 62.5441 62.5441 1 1 0
0.12088 62.5446 62.5446 1 1 0
0.120883 62.545 62.545 1 1 0
0.120886 62.5454 62.5454 1 1 0
0.120889 62.5459 62.5459 1 1 0
0.120892 62.5463 62.5463 1 1 0
0.120895 62.5468 62.5468 1 1 0
0.120898 62.5472 62.5472 1 1 0
0.120901 62.5476 62.5476 1 1 0
0.120904 62.5481 62.5481 1 1 0
0.120907 62.5485 62.5485 1 1 0
0.12091 62.549 62.549 1 1 0
0.120913 62.5494 62.5494 1 1 0
0.120917 62.5498 62.5498 1 1 0
0.12092 62.5503 62.5503 1 1 0
0.120923 62.5507 62.5507 1 1 0
0.120926 62.5512 62.5512 1 1 0
0.120929 62.5516 62.5516 1 1 0
0.120932 62.5521 62.5521 1 1 0
0.120935 62.5525 62.5525 1 1 0
0.120938 62.5529 62.5529 1 1 0
0.120941 62.5534 62.5534 1 1 0
0.120944 62.5538 62.5538 1 1 0
0.120947 62.5543 62.5543 1 1 0
0.12095 62.5547 62.5547 1 1 0
0.120953 62.5551 62.5551 1 1 0
0.120956 62.5556 62.5556 1 1 0
0.120959 62.556 62.556 1 1 0
0.120962 62.5565 62.5565 1 1 0
0.120965 62.5569 62.5569 1 1 0
0.120968 62.5573 62.5573 1 1 0
0.120971 62.5578 62.5578 1 1 0
0.120975 62.5582 62.5582 1 1 0
0.120978 62.5587 62.5587 1 1 0
0.120981 62.5591 62.5591 1 1 0
0.120984 62.5596 62.5596 1 1 0
0.120987 62.56 62.56 1 1 0
0.12099 62.5604 62.5604 1 1 0
0.120993 62.5609 62.5609 1 1 0
0.120996 62.5613 62.5613 1 1 0
0.120999 62.5618 62.5618 1 1 0
0.121002 62.5622 62.5622 1 1 0
0.121005 62.5626 62.5626 1 1 0
0.121008 62.5631 62.5631 1 1 0
0.121011 62.5635 62.5635 1 1 0
0.121014 62.564 62.564 1 1 0
0.121017 62.5644 62.5644 1 1 0
0.12102 62.5648 62.5648 1 1 0
0.121023 62.5653 62.5653 1 1 0
0.121026 62.5657 62.5657 1 1 0
0.12103 62.5662 62.5662 1 1 0
0.121033 62.5666 62.5666 1 1 0
0.121036 62.567 62.567 1 1 0
0.121039 62.5675 62.5675 1 1 0
0.121042 62.5679 62.5679 1 1 0
0.121045 62.5684 62.5684 1 1 0
0.121048 62.5688 62.5688 1 1 0
0.121051 62.5693 62.5693 1 1 0
0.121054 62.5697 62.5697 1 1 0
0.121057 62.5701 62.5701 1 1 0
0.12106 62.5706 62.5706 1 1 0
0.121063 62.571 62.571 1 1 0
0.121066 62.5715 62.5715 1 1 0
0.121069 62.5719 62.5719 1 1 0
0.121072 62.5723 62.5723 1 1 0
0.121075 62.5728 62.5728 1 1 0
0.121079 62.5732 62.5732 1 1 0
0.121082 62.5737 62.5737 1 1 0
0.121085 62.5741 62.5741 1 1 0
0.121088 62.5745 62.5745 1 1 0
0.121091 62.575 62.575 1 1 0
0.121094 62.5754 62.5754 1 1 0
0.121097 62.5759 62.5759 1 1 0
0.1211 62.5763 62.5763 1 1 0
0.121103 62.5768 62.5768 1 1 0
0.121106 62.5772 62.5772 1 1 0
0.121109 62.5776 62.5776 1 1 0
0.121112 62.5781 62.5781 1 1 0
0.121115 62.5785 62.5785 1 1 0
0.121118 62.579 62.579 1 1 0
0.121121 62.5794 62.5794 1 1 0
0.121125 62.5798 62.5798 1 1 0
0.121128 62.5803 62.5803 1 1 0
0.121131 62.5807 62.5807 1 1 0
0.121134 62.5812 62.5812 1 1 0
0.121137 62.5816 62.5816 1 1 0
0.12114 62.582 62.582 1 1 0
0.121143 62.5825 62.5825 1 1 0
0.121146 62.5829 62.5829 1 1 0
0.121149 62.5834 62.5834 1 1 0
0.121152 62.5838 62.5838 1 1 0
0.121155 62.5843 62.5843 1 1 0
0.121158 62.5847 62.5847 1 1 0
0.121161 62.5851 62.5851 1 1 0
0.121164 62.5856 62.5856 1 1 0
0.121167 62.586 62.586 1 1 0
0.121171 62.5865 62.5865 1 1 0
0.121174 62.5869 62.5869 1 1 0
0.121177 62.5873 62.5873 1 1 0
0.12118 62.5878 62.5878 1 1 0
0.121183 62.5882 62.5882 1 1 0
0.121186 62.5887 62.5887 1 1 0
0.121189 62.5891 62.5891 1 1 0
0.121192 62.5895 62.5895 1 1 0
0.121195 62.59 62.59 1 1 0
0.121198 62.5904 62.5904 1 1 0
0.121201 62.5909 62.5909 1 1 0
0.121204 62.5913 62.5913 1 1 0
0.121207 62.5917 62.5917 1 1 0
0.12121 62.5922 62.5922 1 1 0
0.121214 62.5926 62.5926 1 1 0
0.121217 62.5931 62.5931 1 1 0
0.12122 62.5935 62.5935 1 1 0
0.121223 62.594 62.594 1 1 0
0.121226 62.5944 62.5944 1 1 0
0.121229 62.5948 62.5948 1 1 0
0.121232 62.5953 62.5953 1 1 0
0.121235 62.5957 62.5957 1 1 0
0.121238 62.5962 62.5962 1 1 0
0.121241 62.5966 62.5966 1 1 0
0.121244 62.597 62.597 1 1 0
0.121247 62.5975 62.5975 1 1 0
0.12125 62.5979 62.5979 1 1 0
0.121254 62.5984 62.5984 1 1 0
0.121257 62.5988 62.5988 1 1 0
0.12126 62.5992 62.5992 1 1 0
0.121263 62.5997 62.5997 1 1 0
0.121266 62.6001 62.6001 1 1 0
0.121269 62.6006 62.6006 1 1 0
0.121272 62.601 62.601 1 1 0
0.121275 62.6015 62.6015 1 1 0
0.121278 62.6019 62.6019 1 1 0
0.121281 62.6023 62.6023 1 1 0
0.121284 62.6028 62.6028 1 1 0
0.121287 62.6032 62.6032 1 1 0
0.121291 62.6037 62.6037 1 1 0
0.121294 62.6041 62.6041 1 1 0
0.121297 62.6045 62.6045 1 1 0
0.1213 62.605 62.605 1 1 0
0.121303 62.6054 62.6054 1 1 0
0.121306 62.6059 62.6059 1 1 0
0.121309 62.6063 62.6063 1 1 0
0.121312 62.6067 62.6067 1 1 0
0.121315 62.6072 62.6072 1 1 0
0.121318 62.6076 62.6076 1 1 0
0.121321 62.6081 62.6081 1 1 0
0.121324 62.6085 62.6085 1 1 0
0.121328 62.609 62.609 1 1 0
0.121331 62.6094 62.6094 1 1 0
0.121334 62.6098 62.6098 1 1 0
0.121337 62.6103 62.6103 1 1 0
0.12134 62.6107 62.6107 1 1 0
0.121343 62.6112 62.6112 1 1 0
0.121346 62.6116 62.6116 1 1 0
0.121349 62.612 62.612 1 1 0
0.121352 62.6125 62.6125 1 1 0
0.121355 62.6129 62.6129 1 1 0
0.121358 62.6134 62.6134 1 1 0
0.121361 62.6138 62.6138 1 1 0
0.121365 62.6142 62.6142 1 1 0
0.121368 62.6147 62.6147 1 1 0
0.121371 62.6151 62.6151 1 1 0
0.121374 62.6156 62.6156 1 1 0
0.121377 62.616 62.616 1 1 0
0.12138 62.6164 62.6164 1 1 0
0.121383 62.6169 62.6169 1 1 0
0.121386 62.6173 62.6173 1 1 0
0.121389 62.6178 62.6178 1 1 0
0.121392 62.6182 62.6182 1 1 0
0.121395 62.6187 62.6187 1 1 0
0.121399 62.6191 62.6191 1 1 0
0.121402 62.6195 62.6195 1 1 0
0.121405 62.62 62.62 1 1 0
0.121408 62.6204 62.6204 1 1 0
0.121411 62.6209 62.6209 1 1 0
0.121414 62.6213 62.6213 1 1 0
0.121417 62.6217 62.6217 1 1 0
0.12142 62.6222 62.6222 1 1 0
0.121423 62.6226 62.6226 1 1 0
0.121426 62.6231 62.6231 1 1 0
0.121429 62.6235 62.6235 1 1 0
0.121433 62.6239 62.6239 1 1 0
0.121436 62.6244 62.6244 1 1 0
0.121439 62.6248 62.6248 1 1 0
0.121442 62.6253 62.6253 1 1 0
0.121445 62.6257 62.6257 1 1 0
0.121448 62.6262 62.6262 1 1 0
0.121451 62.6266 62.6266 1 1 0
0.121454 62.627 62.627 1 1 0
0.121457 62.6275 62.6275 1 1 0
0.12146 62.6279 62.6279 1 1 0
0.121464 62.6284 62.6284 1 1 0
0.121467 62.6288 62.6288 1 1 0
0.12147 62.6292 62.6292 1 1 0
0.121473 62.6297 62.6297 1 1 0
0.121476 62.6301 62.6301 1 1 0
0.121479 62.6306 62.6306 1 1 0
0.121482 62.631 62.631 1 1 0
0.121485 62.6314 62.6314 1 1 0
0.121488 62.6319 62.6319 1 1 0
0.121491 62.6323 62.6323 1 1 0
0.121494 62.6328 62.6328 1 1 0
0.121498 62.6332 62.6332 1 1 0
0.121501 62.6336 62.6336 1 1 0
0.121504 62.6341 62.6341 1 1 0
0.121507 62.6345 62.6345 1 1 0
0.12151 62.635 62.635 1 1 0
0.121513 62.6354 62.6354 1 1 0
0.121516 62.6359 62.6359 1 1 0
0.121519 62.6363 62.6363 1 1 0
0.121522 62.6367 62.6367 1 1 0
0.121525 62.6372 62.6372 1 1 0
0.121529 62.6376 62.6376 1 1 0
0.121532 62.6381 62.6381 1 1 0
0.121535 62.6385 62.6385 1 1 0
0.121538 62.6389 62.6389 1 1 0
0.121541 62.6394 62.6394 1 1 0
0.121544 62.6398 62.6398 1 1 0
0.121547 62.6403 62.6403 1 1 0
0.12155 62.6407 62.6407 1 1 0
0.121553 62.6411 62.6411 1 1 0
0.121557 62.6416 62.6416 1 1 0
0.12156 62.642 62.642 1 1 0
0.121563 62.6425 62.6425 1 1 0
0.121566 62.6429 62.6429 1 1 0
0.121569 62.6434 62.6434 1 1 0
0.121572 62.6438 62.6438 1 1 0
0.121575 62.6442 62.6442 1 1 0
0.121578 62.6447 62.6447 1 1 0
0.121581 62.6451 62.6451 1 1 0
0.121584 62.6456 62.6456 1 1 0
0.121588 62.646 62.646 1 1 0
0.121591 62.6464 62.6464 1 1 0
0.121594 62.6469 62.6469 1 1 0
0.121597 62.6473 62.6473 1 1 0
0.1216 62.6478 62.6478 1 1 0
0.121603 62.6482 62.6482 1 1 0
0.121606 62.6486 62.6486 1 1 0
0.121609 62.6491 62.6491 1 1 0
0.121612 62.6495 62.6495 1 1 0
0.121616 62.65 62.65 1 1 0
0.121619 62.6504 62.6504 1 1 0
0.121622 62.6509 62.6509 1 1 0
0.121625 62.6513 62.6513 1 1 0
0.121628 62.6517 62.6517 1 1 0
0.121631 62.6522 62.6522 1 1 0
0.121634 62.6526 62.6526 1 1 0
0.121637 62.6531 62.6531 1 1 0
0.12164 62.6535 62.6535 1 1 0
0.121644 62.6539 62.6539 1 1 0
0.121647 62.6544 62.6544 1 1 0
0.12165 62.6548 62.6548 1 1 0
0.121653 62.6553 62.6553 1 1 0
0.121656 62.6557 62.6557 1 1 0
0.121659 62.6561 62.6561 1 1 0
0.121662 62.6566 62.6566 1 1 0
0.121665 62.657 62.657 1 1 0
0.121668 62.6575 62.6575 1 1 0
0.121672 62.6579 62.6579 1 1 0
0.121675 62.6583 62.6583 1 1 0
0.121678 62.6588 62.6588 1 1 0
0.121681 62.6592 62.6592 1 1 0
0.121684 62.6597 62.6597 1 1 0
0.121687 62.6601 62.6601 1 1 0
0.12169 62.6606 62.6606 1 1 0
0.121693 62.661 62.661 1 1 0
0.121696 62.6614 62.6614 1 1 0
0.1217 62.6619 62.6619 1 1 0
0.121703 62.6623 62.6623 1 1 0
0.121706 62.6628 62.6628 1 1 0
0.121709 62.6632 62.6632 1 1 0
0.121712 62.6636 62.6636 1 1 0
0.121715 62.6641 62.6641 1 1 0
0.121718 62.6645 62.6645 1 1 0
0.121721 62.665 62.665 1 1 0
0.121725 62.6654 62.6654 1 1 0
0.121728 62.6658 62.6658 1 1 0
0.121731 62.6663 62.6663 1 1 0
0.121734 62.6667 62.6667 1 1 0
0.121737 62.6672 62.6672 1 1 0
0.12174 62.6676 62.6676 1 1 0
0.121743 62.6681 62.6681 1 1 0
0.121746 62.6685 62.6685 1 1 0
0.12175 62.6689 62.6689 1 1 0
0.121753 62.6694 62.6694 1 1 0
0.121756 62.6698 62.6698 1 1 0
0.121759 62.6703 62.6703 1 1 0
0.121762 62.6707 62.6707 1 1 0
0.121765 62.6711 62.6711 1 1 0
0.121768 62.6716 62.6716 1 1 0
0.121771 62.672 62.672 1 1 0
0.121774 62.6725 62.6725 1 1 0
0.121778 62.6729 62.6729 1 1 0
0.121781 62.6733 62.6733 1 1 0
0.121784 62.6738 62.6738 1 1 0
0.121787 62.6742 62.6742 1 1 0
0.12179 62.6747 62.6747 1 1 0
0.121793 62.6751 62.6751 1 1 0
0.121796 62.6755 62.6755 1 1 0
0.121799 62.676 62.676 1 1 0
0.121803 62.6764 62.6764 1 1 0
0.121806 62.6769 62.6769 1 1 0
0.121809 62.6773 62.6773 1 1 0
0.121812 62.6778 62.6778 1 1 0
0.121815 62.6782 62.6782 1 1 0
0.121818 62.6786 62.6786 1 1 0
0.121821 62.6791 62.6791 1 1 0
0.121824 62.6795 62.6795 1 1 0
0.121828 62.68 62.68 1 1 0
0.121831 62.6804 62.6804 1 1 0
0.121834 62.6808 62.6808 1 1 0
0.121837 62.6813 62.6813 1 1 0
0.12184 62.6817 62.6817 1 1 0
0.121843 62.6822 62.6822 1 1 0
0.121846 62.6826 62.6826 1 1 0
0.12185 62.683 62.683 1 1 0
0.121853 62.6835 62.6835 1 1 0
0.121856 62.6839 62.6839 1 1 0
0.121859 62.6844 62.6844 1 1 0
0.121862 62.6848 62.6848 1 1 0
0.121865 62.6853 62.6853 1 1 0
0.121868 62.6857 62.6857 1 1 0
0.121871 62.6861 62.6861 1 1 0
0.121875 62.6866 62.6866 1 1 0
0.121878 62.687 62.687 1 1 0
0.121881 62.6875 62.6875 1 1 0
0.121884 62.6879 62.6879 1 1 0
0.121887 62.6883 62.6883 1 1 0
0.12189 62.6888 62.6888 1 1 0
0.121893 62.6892 62.6892 1 1 0
0.121896 62.6897 62.6897 1 1 0
0.1219 62.6901 62.6901 1 1 0
0.121903 62.6905 62.6905 1 1 0
0.121906 62.691 62.691 1 1 0
0.121909 62.6914 62.6914 1 1 0
0.121912 62.6919 62.6919 1 1 0
0.121915 62.6923 62.6923 1 1 0
0.121918 62.6928 62.6928 1 1 0
0.121922 62.6932 62.6932 1 1 0
0.121925 62.6936 62.6936 1 1 0
0.121928 62.6941 62.6941 1 1 0
0.121931 62.6945 62.6945 1 1 0
0.121934 62.695 62.695 1 1 0
0.121937 62.6954 62.6954 1 1 0
0.12194 62.6958 62.6958 1 1 0
0.121944 62.6963 62.6963 1 1 0
0.121947 62.6967 62.6967 1 1 0
0.12195 62.6972 62.6972 1 1 0
0.121953 62.6976 62.6976 1 1 0
0.121956 62.698 62.698 1 1 0
0.121959 62.6985 62.6985 1 1 0
0.121962 62.6989 62.6989 1 1 0
0.121966 62.6994 62.6994 1 1 0
0.121969 62.6998 62.6998 1 1 0
0.121972 62.7002 62.7002 1 1 0
0.121975 62.7007 62.7007 1 1 0
0.121978 62.7011 62.7011 1 1 0
0.121981 62.7016 62.7016 1 1 0
0.121984 62.702 62.702 1 1 0
0.121987 62.7025 62.7025 1 1 0
0.121991 62.7029 62.7029 1 1 0
0.121994 62.7033 62.7033 1 1 0
0.121997 62.7038 62.7038 1 1 0
0.122 62.7042 62.7042 1 1 0
0.122003 62.7047 62.7047 1 1 0
0.122006 62.7051 62.7051 1 1 0
0.122009 62.7055 62.7055 1 1 0
0.122013 62.706 62.706 1 1 0
0.122016 62.7064 62.7064 1 1 0
0.122019 62.7069 62.7069 1 1 0
0.122022 62.7073 62.7073 1 1 0
0.122025 62.7077 62.7077 1 1 0
0.122028 62.7082 62.7082 1 1 0
0.122031 62.7086 62.7086 1 1 0
0.122035 62.7091 62.7091 1 1 0
0.122038 62.7095 62.7095 1 1 0
0.122041 62.71 62.71 1 1 0
0.122044 62.7104 62.7104 1 1 0
0.122047 62.7108 62.7108 1 1 0
0.12205 62.7113 62.7113 1 1 0
0.122054 62.7117 62.7117 1 1 0
0.122057 62.7122 62.7122 1 1 0
0.12206 62.7126 62.7126 1 1 0
0.122063 62.713 62.713 1 1 0
0.122066 62.7135 62.7135 1 1 0
0.122069 62.7139 62.7139 1 1 0
0.122072 62.7144 62.7144 1 1 0
0.122076 62.7148 62.7148 1 1 0
0.122079 62.7152 62.7152 1 1 0
0.122082 62.7157 62.7157 1 1 0
0.122085 62.7161 62.7161 1 1 0
0.122088 62.7166 62.7166 1 1 0
0.122091 62.717 62.717 1 1 0
0.122094 62.7174 62.7174 1 1 0
0.122098 62.7179 62.7179 1 1 0
0.122101 62.7183 62.7183 1 1 0
0.122104 62.7188 62.7188 1 1 0
0.122107 62.7192 62.7192 1 1 0
0.12211 62.7197 62.7197 1 1 0
0.122113 62.7201 62.7201 1 1 0
0.122117 62.7205 62.7205 1 1 0
0.12212 62.721 62.721 1 1 0
0.122123 62.7214 62.7214 1 1 0
0.122126 62.7219 62.7219 1 1 0
0.122129 62.7223 62.7223 1 1 0
0.122132 62.7227 62.7227 1 1 0
0.122135 62.7232 62.7232 1 1 0
0.122139 62.7236 62.7236 1 1 0
0.122142 62.7241 62.7241 1 1 0
0.122145 62.7245 62.7245 1 1 0
0.122148 62.7249 62.7249 1 1 0
0.122151 62.7254 62.7254 1 1 0
0.122154 62.7258 62.7258 1 1 0
0.122158 62.7263 62.7263 1 1 0
0.122161 62.7267 62.7267 1 1 0
0.122164 62.7272 62.7272 1 1 0
0.122167 62.7276 62.7276 1 1 0
0.12217 62.728 62.728 1 1 0
0.122173 62.7285 62.7285 1 1 0
0.122176 62.7289 62.7289 1 1 0
0.12218 62.7294 62.7294 1 1 0
0.122183 62.7298 62.7298 1 1 0
0.122186 62.7302 62.7302 1 1 0
0.122189 62.7307 62.7307 1 1 0
0.122192 62.7311 62.7311 1 1 0
0.122195 62.7316 62.7316 1 1 0
0.122199 62.732 62.732 1 1 0
0.122202 62.7324 62.7324 1 1 0
0.122205 62.7329 62.7329 1 1 0
0.122208 62.7333 62.7333 1 1 0
0.122211 62.7338 62.7338 1 1 0
0.122214 62.7342 62.7342 1 1 0
0.122218 62.7347 62.7347 1 1 0
0.122221 62.7351 62.7351 1 1 0
0.122224 62.7355 62.7355 1 1 0
0.122227 62.736 62.736 1 1 0
0.12223 62.7364 62.7364 1 1 0
0.122233 62.7369 62.7369 1 1 0
0.122237 62.7373 62.7373 1 1 0
0.12224 62.7377 62.7377 1 1 0
0.122243 62.7382 62.7382 1 1 0
0.122246 62.7386 62.7386 1 1 0
0.122249 62.7391 62.7391 1 1 0
0.122252 62.7395 62.7395 1 1 0
0.122256 62.7399 62.7399 1 1 0
0.122259 62.7404 62.7404 1 1 0
0.122262 62.7408 62.7408 1 1 0
0.122265 62.7413 62.7413 1 1 0
0.122268 62.7417 62.7417 1 1 0
0.122271 62.7421 62.7421 1 1 0
0.122275 62.7426 62.7426 1 1 0
0.122278 62.743 62.743 1 1 0
0.122281 62.7435 62.7435 1 1 0
0.122284 62.7439 62.7439 1 1 0
0.122287 62.7444 62.7444 1 1 0
0.12229 62.7448 62.7448 1 1 0
0.122294 62.7452 62.7452 1 1 0
0.122297 62.7457 62.7457 1 1 0
0.1223 62.7461 62.7461 1 1 0
0.122303 62.7466 62.7466 1 1 0
0.122306 62.747 62.747 1 1 0
0.122309 62.7474 62.7474 1 1 0
0.122313 62.7479 62.7479 1 1 0
0.122316 62.7483 62.7483 1 1 0
0.122319 62.7488 62.7488 1 1 0
0.122322 62.7492 62.7492 1 1 0
0.122325 62.7496 62.7496 1 1 0
0.122328 62.7501 62.7501 1 1 0
0.122332 62.7505 62.7505 1 1 0
0.122335 62.751 62.751 1 1 0
0.122338 62.7514 62.7514 1 1 0
0.122341 62.7519 62.7519 1 1 0
0.122344 62.7523 62.7523 1 1 0
0.122347 62.7527 62.7527 1 1 0
0.122351 62.7532 62.7532 1 1 0
0.122354 62.7536 62.7536 1 1 0
0.122357 62.7541 62.7541 1 1 0
0.12236 62.7545 62.7545 1 1 0
0.122363 62.7549 62.7549 1 1 0
0.122366 62.7554 62.7554 1 1 0
0.12237 62.7558 62.7558 1 1 0
0.122373 62.7563 62.7563 1 1 0
0.122376 62.7567 62.7567 1 1 0
0.122379 62.7571 62.7571 1 1 0
0.122382 62.7576 62.7576 1 1 0
0.122386 62.758 62.758 1 1 0
0.122389 62.7585 62.7585 1 1 0
0.122392 62.7589 62.7589 1 1 0
0.122395 62.7593 62.7593 1 1 0
0.122398 62.7598 62.7598 1 1 0
0.122401 62.7602 62.7602 1 1 0
0.122405 62.7607 62.7607 1 1 0
0.122408 62.7611 62.7611 1 1 0
0.122411 62.7616 62.7616 1 1 0
0.122414 62.762 62.762 1 1 0
0.122417 62.7624 62.7624 1 1 0
0.122421 62.7629 62.7629 1 1 0
0.122424 62.7633 62.7633 1 1 0
0.122427 62.7638 62.7638 1 1 0
0.12243 62.7642 62.7642 1 1 0
0.122433 62.7646 62.7646 1 1 0
0.122436 62.7651 62.7651 1 1 0
0.12244 62.7655 62.7655 1 1 0
0.122443 62.766 62.766 1 1 0
0.122446 62.7664 62.7664 1 1 0
0.122449 62.7668 62.7668 1 1 0
0.122452 62.7673 62.7673 1 1 0
0.122456 62.7677 62.7677 1 1 0
0.122459 62.7682 62.7682 1 1 0
0.122462 62.7686 62.7686 1 1 0
0.122465 62.7691 62.7691 1 1 0
0.122468 62.7695 62.7695 1 1 0
0.122471 62.7699 62.7699 1 1 0
0.122475 62.7704 62.7704 1 1 0
0.122478 62.7708 62.7708 1 1 0
0.122481 62.7713 62.7713 1 1 0
0.122484 62.7717 62.7717 1 1 0
0.122487 62.7721 62.7721 1 1 0
0.122491 62.7726 62.7726 1 1 0
0.122494 62.773 62.773 1 1 0
0.122497 62.7735 62.7735 1 1 0
0.1225 62.7739 62.7739 1 1 0
0.122503 62.7743 62.7743 1 1 0
0.122506 62.7748 62.7748 1 1 0
0.12251 62.7752 62.7752 1 1 0
0.122513 62.7757 62.7757 1 1 0
0.122516 62.7761 62.7761 1 1 0
0.122519 62.7765 62.7765 1 1 0
0.122522 62.777 62.777 1 1 0
0.122526 62.7774 62.7774 1 1 0
0.122529 62.7779 62.7779 1 1 0
0.122532 62.7783 62.7783 1 1 0
0.122535 62.7788 62.7788 1 1 0
0.122538 62.7792 62.7792 1 1 0
0.122542 62.7796 62.7796 1 1 0
0.122545 62.7801 62.7801 1 1 0
0.122548 62.7805 62.7805 1 1 0
0.122551 62.781 62.781 1 1 0
0.122554 62.7814 62.7814 1 1 0
0.122558 62.7818 62.7818 1 1 0
0.122561 62.7823 62.7823 1 1 0
0.122564 62.7827 62.7827 1 1 0
0.122567 62.7832 62.7832 1 1 0
0.12257 62.7836 62.7836 1 1 0
0.122573 62.784 62.784 1 1 0
0.122577 62.7845 62.7845 1 1 0
0.12258 62.7849 62.7849 1 1 0
0.122583 62.7854 62.7854 1 1 0
0.122586 62.7858 62.7858 1 1 0
0.122589 62.7863 62.7863 1 1 0
0.122593 62.7867 62.7867 1 1 0
0.122596 62.7871 62.7871 1 1 0
0.122599 62.7876 62.7876 1 1 0
0.122602 62.788 62.788 1 1 0
0.122605 62.7885 62.7885 1 1 0
0.122609 62.7889 62.7889 1 1 0
0.122612 62.7893 62.7893 1 1 0
0.122615 62.7898 62.7898 1 1 0
0.122618 62.7902 62.7902 1 1 0
0.122621 62.7907 62.7907 1 1 0
0.122625 62.7911 62.7911 1 1 0
0.122628 62.7915 62.7915 1 1 0
0.122631 62.792 62.792 1 1 0
0.122634 62.7924 62.7924 1 1 0
0.122637 62.7929 62.7929 1 1 0
0.122641 62.7933 62.7933 1 1 0
0.122644 62.7938 62.7938 1 1 0
0.122647 62.7942 62.7942 1 1 0
0.12265 62.7946 62.7946 1 1 0
0.122653 62.7951 62.7951 1 1 0
0.122657 62.7955 62.7955 1 1 0
0.12266 62.796 62.796 1 1 0
0.122663 62.7964 62.7964 1 1 0
0.122666 62.7968 62.7968 1 1 0
0.122669 62.7973 62.7973 1 1 0
0.122673 62.7977 62.7977 1 1 0
0.122676 62.7982 62.7982 1 1 0
0.122679 62.7986 62.7986 1 1 0
0.122682 62.799 62.799 1 1 0
0.122685 62.7995 62.7995 1 1 0
0.122689 62.7999 62.7999 1 1 0
0.122692 62.8004 62.8004 1 1 0
0.122695 62.8008 62.8008 1 1 0
0.122698 62.8012 62.8012 1 1 0
0.122701 62.8017 62.8017 1 1 0
0.122705 62.8021 62.8021 1 1 0
0.122708 62.8026 62.8026 1 1 0
0.122711 62.803 62.803 1 1 0
0.122714 62.8035 62.8035 1 1 0
0.122717 62.8039 62.8039 1 1 0
0.122721 62.8043 62.8043 1 1 0
0.122724 62.8048 62.8048 1 1 0
0.122727 62.8052 62.8052 1 1 0
0.12273 62.8057 62.8057 1 1 0
0.122734 62.8061 62.8061 1 1 0
0.122737 62.8065 62.8065 1 1 0
0.12274 62.807 62.807 1 1 0
0.122743 62.8074 62.8074 1 1 0
0.122746 62.8079 62.8079 1 1 0
0.12275 62.8083 62.8083 1 1 0
0.122753 62.8087 62.8087 1 1 0
0.122756 62.8092 62.8092 1 1 0
0.122759 62.8096 62.8096 1 1 0
0.122762 62.8101 62.8101 1 1 0
0.122766 62.8105 62.8105 1 1 0
0.122769 62.811 62.811 1 1 0
0.122772 62.8114 62.8114 1 1 0
0.122775 62.8118 62.8118 1 1 0
0.122778 62.8123 62.8123 1 1 0
0.122782 62.8127 62.8127 1 1 0
0.122785 62.8132 62.8132 1 1 0
0.122788 62.8136 62.8136 1 1 0
0.122791 62.814 62.814 1 1 0
0.122795 62.8145 62.8145 1 1 0
0.122798 62.8149 62.8149 1 1 0
0.122801 62.8154 62.8154 1 1 0
0.122804 62.8158 62.8158 1 1 0
0.122807 62.8162 62.8162 1 1 0
0.122811 62.8167 62.8167 1 1 0
0.122814 62.8171 62.8171 1 1 0
0.122817 62.8176 62.8176 1 1 0
0.12282 62.818 62.818 1 1 0
0.122823 62.8184 62.8184 1 1 0
0.122827 62.8189 62.8189 1 1 0
0.12283 62.8193 62.8193 1 1 0
0.122833 62.8198 62.8198 1 1 0
0.122836 62.8202 62.8202 1 1 0
0.12284 62.8207 62.8207 1 1 0
0.122843 62.8211 62.8211 1 1 0
0.122846 62.8215 62.8215 1 1 0
0.122849 62.822 62.822 1 1 0
0.122852 62.8224 62.8224 1 1 0
0.122856 62.8229 62.8229 1 1 0
0.122859 62.8233 62.8233 1 1 0
0.122862 62.8237 62.8237 1 1 0
0.122865 62.8242 62.8242 1 1 0
0.122869 62.8246 62.8246 1 1 0
0.122872 62.8251 62.8251 1 1 0
0.122875 62.8255 62.8255 1 1 0
0.122878 62.8259 62.8259 1 1 0
0.122881 62.8264 62.8264 1 1 0
0.122885 62.8268 62.8268 1 1 0
0.122888 62.8273 62.8273 1 1 0
0.122891 62.8277 62.8277 1 1 0
0.122894 62.8282 62.8282 1 1 0
0.122898 62.8286 62.8286 1 1 0
0.122901 62.829 62.829 1 1 0
0.122904 62.8295 62.8295 1 1 0
0.122907 62.8299 62.8299 1 1 0
0.12291 62.8304 62.8304 1 1 0
0.122914 62.8308 62.8308 1 1 0
0.122917 62.8312 62.8312 1 1 0
0.12292 62.8317 62.8317 1 1 0
0.122923 62.8321 62.8321 1 1 0
0.122927 62.8326 62.8326 1 1 0
0.12293 62.833 62.833 1 1 0
0.122933 62.8334 62.8334 1 1 0
0.122936 62.8339 62.8339 1 1 0
0.122939 62.8343 62.8343 1 1 0
0.122943 62.8348 62.8348 1 1 0
0.122946 62.8352 62.8352 1 1 0
0.122949 62.8356 62.8356 1 1 0
0.122952 62.8361 62.8361 1 1 0
0.122956 62.8365 62.8365 1 1 0
0.122959 62.837 62.837 1 1 0
0.122962 62.8374 62.8374 1 1 0
0.122965 62.8379 62.8379 1 1 0
0.122969 62.8383 62.8383 1 1 0
0.122972 62.8387 62.8387 1 1 0
0.122975 62.8392 62.8392 1 1 0
0.122978 62.8396 62.8396 1 1 0
0.122981 62.8401 62.8401 1 1 0
0.122985 62.8405 62.8405 1 1 0
0.122988 62.8409 62.8409 1 1 0
0.122991 62.8414 62.8414 1 1 0
0.122994 62.8418 62.8418 1 1 0
0.122998 62.8423 62.8423 1 1 0
0.123001 62.8427 62.8427 1 1 0
0.123004 62.8431 62.8431 1 1 0
0.123007 62.8436 62.8436 1 1 0
0.123011 62.844 62.844 1 1 0
0.123014 62.8445 62.8445 1 1 0
0.123017 62.8449 62.8449 1 1 0
0.12302 62.8454 62.8454 1 1 0
0.123023 62.8458 62.8458 1 1 0
0.123027 62.8462 62.8462 1 1 0
0.12303 62.8467 62.8467 1 1 0
0.123033 62.8471 62.8471 1 1 0
0.123036 62.8476 62.8476 1 1 0
0.12304 62.848 62.848 1 1 0
0.123043 62.8484 62.8484 1 1 0
0.123046 62.8489 62.8489 1 1 0
0.123049 62.8493 62.8493 1 1 0
0.123053 62.8498 62.8498 1 1 0
0.123056 62.8502 62.8502 1 1 0
0.123059 62.8506 62.8506 1 1 0
0.123062 62.8511 62.8511 1 1 0
0.123066 62.8515 62.8515 1 1 0
0.123069 62.852 62.852 1 1 0
0.123072 62.8524 62.8524 1 1 0
0.123075 62.8528 62.8528 1 1 0
0.123078 62.8533 62.8533 1 1 0
0.123082 62.8537 62.8537 1 1 0
0.123085 62.8542 62.8542 1 1 0
0.123088 62.8546 62.8546 1 1 0
0.123091 62.8551 62.8551 1 1 0
0.123095 62.8555 62.8555 1 1 0
0.123098 62.8559 62.8559 1 1 0
0.123101 62.8564 62.8564 1 1 0
0.123104 62.8568 62.8568 1 1 0
0.123108 62.8573 62.8573 1 1 0
0.123111 62.8577 62.8577 1 1 0
0.123114 62.8581 62.8581 1 1 0
0.123117 62.8586 62.8586 1 1 0
0.123121 62.859 62.859 1 1 0
0.123124 62.8595 62.8595 1 1 0
0.123127 62.8599 62.8599 1 1 0
0.12313 62.8603 62.8603 1 1 0
0.123134 62.8608 62.8608 1 1 0
0.123137 62.8612 62.8612 1 1 0
0.12314 62.8617 62.8617 1 1 0
0.123143 62.8621 62.8621 1 1 0
0.123147 62.8626 62.8626 1 1 0
0.12315 62.863 62.863 1 1 0
0.123153 62.8634 62.8634 1 1 0
0.123156 62.8639 62.8639 1 1 0
0.12316 62.8643 62.8643 1 1 0
0.123163 62.8648 62.8648 1 1 0
0.123166 62.8652 62.8652 1 1 0
0.123169 62.8656 62.8656 1 1 0
0.123173 62.8661 62.8661 1 1 0
0.123176 62.8665 62.8665 1 1 0
0.123179 62.867 62.867 1 1 0
0.123182 62.8674 62.8674 1 1 0
0.123186 62.8678 62.8678 1 1 0
0.123189 62.8683 62.8683 1 1 0
0.123192 62.8687 62.8687 1 1 0
0.123195 62.8692 62.8692 1 1 0
0.123199 62.8696 62.8696 1 1 0
0.123202 62.87 62.87 1 1 0
0.123205 62.8705 62.8705 1 1 0
0.123208 62.8709 62.8709 1 1 0
0.123212 62.8714 62.8714 1 1 0
0.123215 62.8718 62.8718 1 1 0
0.123218 62.8723 62.8723 1 1 0
0.123221 62.8727 62.8727 1 1 0
0.123225 62.8731 62.8731 1 1 0
0.123228 62.8736 62.8736 1 1 0
0.123231 62.874 62.874 1 1 0
0.123234 62.8745 62.8745 1 1 0
0.123238 62.8749 62.8749 1 1 0
0.123241 62.8753 62.8753 1 1 0
0.123244 62.8758 62.8758 1 1 0
0.123247 62.8762 62.8762 1 1 0
0.123251 62.8767 62.8767 1 1 0
0.123254 62.8771 62.8771 1 1 0
0.123257 62.8775 62.8775 1 1 0
0.12326 62.878 62.878 1 1 0
0.123264 62.8784 62.8784 1 1 0
0.123267 62.8789 62.8789 1 1 0
0.12327 62.8793 62.8793 1 1 0
0.123273 62.8798 62.8798 1 1 0
0.123277 62.8802 62.8802 1 1 0
0.12328 62.8806 62.8806 1 1 0
0.123283 62.8811 62.8811 1 1 0
0.123286 62.8815 62.8815 1 1 0
0.12329 62.882 62.882 1 1 0
0.123293 62.8824 62.8824 1 1 0
0.123296 62.8828 62.8828 1 1 0
0.123299 62.8833 62.8833 1 1 0
0.123303 62.8837 62.8837 1 1 0
0.123306 62.8842 62.8842 1 1 0
0.123309 62.8846 62.8846 1 1 0
0.123313 62.885 62.885 1 1 0
0.123316 62.8855 62.8855 1 1 0
0.123319 62.8859 62.8859 1 1 0
0.123322 62.8864 62.8864 1 1 0
0.123326 62.8868 62.8868 1 1 0
0.123329 62.8872 62.8872 1 1 0
0.123332 62.8877 62.8877 1 1 0
0.123335 62.8881 62.8881 1 1 0
0.123339 62.8886 62.8886 1 1 0
0.123342 62.889 62.889 1 1 0
0.123345 62.8895 62.8895 1 1 0
0.123348 62.8899 62.8899 1 1 0
0.123352 62.8903 62.8903 1 1 0
0.123355 62.8908 62.8908 1 1 0
0.123358 62.8912 62.8912 1 1 0
0.123361 62.8917 62.8917 1 1 0
0.123365 62.8921 62.8921 1 1 0
0.123368 62.8925 62.8925 1 1 0
0.123371 62.893 62.893 1 1 0
0.123375 62.8934 62.8934 1 1 0
0.123378 62.8939 62.8939 1 1 0
0.123381 62.8943 62.8943 1 1 0
0.123384 62.8947 62.8947 1 1 0
0.123388 62.8952 62.8952 1 1 0
0.123391 62.8956 62.8956 1 1 0
0.123394 62.8961 62.8961 1 1 0
0.123397 62.8965 62.8965 1 1 0
0.123401 62.897 62.897 1 1 0
0.123404 62.8974 62.8974 1 1 0
0.123407 62.8978 62.8978 1 1 0
0.12341 62.8983 62.8983 1 1 0
0.123414 62.8987 62.8987 1 1 0
0.123417 62.8992 62.8992 1 1 0
0.12342 62.8996 62.8996 1 1 0
0.123424 62.9 62.9 1 1 0
0.123427 62.9005 62.9005 1 1 0
0.12343 62.9009 62.9009 1 1 0
0.123433 62.9014 62.9014 1 1 0
0.123437 62.9018 62.9018 1 1 0
0.12344 62.9022 62.9022 1 1 0
0.123443 62.9027 62.9027 1 1 0
0.123446 62.9031 62.9031 1 1 0
0.12345 62.9036 62.9036 1 1 0
0.123453 62.904 62.904 1 1 0
0.123456 62.9044 62.9044 1 1 0
0.12346 62.9049 62.9049 1 1 0
0.123463 62.9053 62.9053 1 1 0
0.123466 62.9058 62.9058 1 1 0
0.123469 62.9062 62.9062 1 1 0
0.123473 62.9067 62.9067 1 1 0
0.123476 62.9071 62.9071 1 1 0
0.123479 62.9075 62.9075 1 1 0
0.123483 62.908 62.908 1 1 0
0.123486 62.9084 62.9084 1 1 0
0.123489 62.9089 62.9089 1 1 0
0.123492 62.9093 62.9093 1 1 0
0.123496 62.9097 62.9097 1 1 0
0.123499 62.9102 62.9102 1 1 0
0.123502 62.9106 62.9106 1 1 0
0.123505 62.9111 62.9111 1 1 0
0.123509 62.9115 62.9115 1 1 0
0.123512 62.9119 62.9119 1 1 0
0.123515 62.9124 62.9124 1 1 0
0.123519 62.9128 62.9128 1 1 0
0.123522 62.9133 62.9133 1 1 0
0.123525 62.9137 62.9137 1 1 0
0.123528 62.9142 62.9142 1 1 0
0.123532 62.9146 62.9146 1 1 0
0.123535 62.915 62.915 1 1 0
0.123538 62.9155 62.9155 1 1 0
0.123542 62.9159 62.9159 1 1 0
0.123545 62.9164 62.9164 1 1 0
0.123548 62.9168 62.9168 1 1 0
0.123551 62.9172 62.9172 1 1 0
0.123555 62.9177 62.9177 1 1 0
0.123558 62.9181 62.9181 1 1 0
0.123561 62.9186 62.9186 1 1 0
0.123565 62.919 62.919 1 1 0
0.123568 62.9194 62.9194 1 1 0
0.123571 62.9199 62.9199 1 1 0
0.123574 62.9203 62.9203 1 1 0
0.123578 62.9208 62.9208 1 1 0
0.123581 62.9212 62.9212 1 1 0
0.123584 62.9216 62.9216 1 1 0
0.123588 62.9221 62.9221 1 1 0
0.123591 62.9225 62.9225 1 1 0
0.123594 62.923 62.923 1 1 0
0.123597 62.9234 62.9234 1 1 0
0.123601 62.9239 62.9239 1 1 0
0.123604 62.9243 62.9243 1 1 0
0.123607 62.9247 62.9247 1 1 0
0.123611 62.9252 62.9252 1 1 0
0.123614 62.9256 62.9256 1 1 0
0.123617 62.9261 62.9261 1 1 0
0.12362 62.9265 62.9265 1 1 0
0.123624 62.9269 62.9269 1 1 0
0.123627 62.9274 62.9274 1 1 0
0.12363 62.9278 62.9278 1 1 0
0.123634 62.9283 62.9283 1 1 0
0.123637 62.9287 62.9287 1 1 0
0.12364 62.9291 62.9291 1 1 0
0.123643 62.9296 62.9296 1 1 0
0.123647 62.93 62.93 1 1 0
0.12365 62.9305 62.9305 1 1 0
0.123653 62.9309 62.9309 1 1 0
0.123657 62.9314 62.9314 1 1 0
0.12366 62.9318 62.9318 1 1 0
0.123663 62.9322 62.9322 1 1 0
0.123666 62.9327 62.9327 1 1 0
0.12367 62.9331 62.9331 1 1 0
0.123673 62.9336 62.9336 1 1 0
0.123676 62.934 62.934 1 1 0
0.12368 62.9344 62.9344 1 1 0
0.123683 62.9349 62.9349 1 1 0
0.123686 62.9353 62.9353 1 1 0
0.12369 62.9358 62.9358 1 1 0
0.123693 62.9362 62.9362 1 1 0
0.123696 62.9366 62.9366 1 1 0
0.123699 62.9371 62.9371 1 1 0
0.123703 62.9375 62.9375 1 1 0
0.123706 62.938 62.938 1 1 0
0.123709 62.9384 62.9384 1 1 0
0.123713 62.9388 62.9388 1 1 0
0.123716 62.9393 62.9393 1 1 0
0.123719 62.9397 62.9397 1 1 0
0.123723 62.9402 62.9402 1 1 0
0.123726 62.9406 62.9406 1 1 0
0.123729 62.9411 62.9411 1 1 0
0.123732 62.9415 62.9415 1 1 0
0.123736 62.9419 62.9419 1 1 0
0.123739 62.9424 62.9424 1 1 0
0.123742 62.9428 62.9428 1 1 0
0.123746 62.9433 62.9433 1 1 0
0.123749 62.9437 62.9437 1 1 0
0.123752 62.9441 62.9441 1 1 0
0.123756 62.9446 62.9446 1 1 0
0.123759 62.945 62.945 1 1 0
0.123762 62.9455 62.9455 1 1 0
0.123765 62.9459 62.9459 1 1 0
0.123769 62.9463 62.9463 1 1 0
0.123772 62.9468 62.9468 1 1 0
0.123775 62.9472 62.9472 1 1 0
0.123779 62.9477 62.9477 1 1 0
0.123782 62.9481 62.9481 1 1 0
0.123785 62.9485 62.9485 1 1 0
0.123789 62.949 62.949 1 1 0
0.123792 62.9494 62.9494 1 1 0
0.123795 62.9499 62.9499 1 1 0
0.123799 62.9503 62.9503 1 1 0
0.123802 62.9508 62.9508 1 1 0
0.123805 62.9512 62.9512 1 1 0
0.123808 62.9516 62.9516 1 1 0
0.123812 62.9521 62.9521 1 1 0
0.123815 62.9525 62.9525 1 1 0
0.123818 62.953 62.953 1 1 0
0.123822 62.9534 62.9534 1 1 0
0.123825 62.9538 62.9538 1 1 0
0.123828 62.9543 62.9543 1 1 0
0.123832 62.9547 62.9547 1 1 0
0.123835 62.9552 62.9552 1 1 0
0.123838 62.9556 62.9556 1 1 0
0.123842 62.956 62.956 1 1 0
0.123845 62.9565 62.9565 1 1 0
0.123848 62.9569 62.9569 1 1 0
0.123851 62.9574 62.9574 1 1 0
0.123855 62.9578 62.9578 1 1 0
0.123858 62.9583 62.9583 1 1 0
0.123861 62.9587 62.9587 1 1 0
0.123865 62.9591 62.9591 1 1 0
0.123868 62.9596 62.9596 1 1 0
0.123871 62.96 62.96 1 1 0
0.123875 62.9605 62.9605 1 1 0
0.123878 62.9609 62.9609 1 1 0
0.123881 62.9613 62.9613 1 1 0
0.123885 62.9618 62.9618 1 1 0
0.123888 62.9622 62.9622 1 1 0
0.123891 62.9627 62.9627 1 1 0
0.123895 62.9631 62.9631 1 1 0
0.123898 62.9635 62.9635 1 1 0
0.123901 62.964 62.964 1 1 0
0.123904 62.9644 62.9644 1 1 0
0.123908 62.9649 62.9649 1 1 0
0.123911 62.9653 62.9653 1 1 0
0.123914 62.9657 62.9657 1 1 0
0.123918 62.9662 62.9662 1 1 0
0.123921 62.9666 62.9666 1 1 0
0.123924 62.9671 62.9671 1 1 0
0.123928 62.9675 62.9675 1 1 0
0.123931 62.968 62.968 1 1 0
0.123934 62.9684 62.9684 1 1 0
0.123938 62.9688 62.9688 1 1 0
0.123941 62.9693 62.9693 1 1 0
0.123944 62.9697 62.9697 1 1 0
0.123948 62.9702 62.9702 1 1 0
0.123951 62.9706 62.9706 1 1 0
0.123954 62.971 62.971 1 1 0
0.123958 62.9715 62.9715 1 1 0
0.123961 62.9719 62.9719 1 1 0
0.123964 62.9724 62.9724 1 1 0
0.123968 62.9728 62.9728 1 1 0
0.123971 62.9732 62.9732 1 1 0
0.123974 62.9737 62.9737 1 1 0
0.123978 62.9741 62.9741 1 1 0
0.123981 62.9746 62.9746 1 1 0
0.123984 62.975 62.975 1 1 0
0.123987 62.9755 62.9755 1 1 0
0.123991 62.9759 62.9759 1 1 0
0.123994 62.9763 62.9763 1 1 0
0.123997 62.9768 62.9768 1 1 0
0.124001 62.9772 62.9772 1 1 0
0.124004 62.9777 62.9777 1 1 0
0.124007 62.9781 62.9781 1 1 0
0.124011 62.9785 62.9785 1 1 0
0.124014 62.979 62.979 1 1 0
0.124017 62.9794 62.9794 1 1 0
0.124021 62.9799 62.9799 1 1 0
0.124024 62.9803 62.9803 1 1 0
0.124027 62.9807 62.9807 1 1 0
0.124031 62.9812 62.9812 1 1 0
0.124034 62.9816 62.9816 1 1 0
0.124037 62.9821 62.9821 1 1 0
0.124041 62.9825 62.9825 1 1 0
0.124044 62.9829 62.9829 1 1 0
0.124047 62.9834 62.9834 1 1 0
0.124051 62.9838 62.9838 1 1 0
0.124054 62.9843 62.9843 1 1 0
0.124057 62.9847 62.9847 1 1 0
0.124061 62.9852 62.9852 1 1 0
0.124064 62.9856 62.9856 1 1 0
0.124067 62.986 62.986 1 1 0
0.124071 62.9865 62.9865 1 1 0
0.124074 62.9869 62.9869 1 1 0
0.124077 62.9874 62.9874 1 1 0
0.124081 62.9878 62.9878 1 1 0
0.124084 62.9882 62.9882 1 1 0
0.124087 62.9887 62.9887 1 1 0
0.124091 62.9891 62.9891 1 1 0
0.124094 62.9896 62.9896 1 1 0
0.124097 62.99 62.99 1 1 0
0.124101 62.9904 62.9904 1 1 0
0.124104 62.9909 62.9909 1 1 0
0.124107 62.9913 62.9913 1 1 0
0.124111 62.9918 62.9918 1 1 0
0.124114 62.9922 62.9922 1 1 0
0.124117 62.9927 62.9927 1 1 0
0.124121 62.9931 62.9931 1 1 0
0.124124 62.9935 62.9935 1 1 0
0.124127 62.994 62.994 1 1 0
0.124131 62.9944 62.9944 1 1 0
0.124134 62.9949 62.9949 1 1 0
0.124137 62.9953 62.9953 1 1 0
0.124141 62.9957 62.9957 1 1 0
0.124144 62.9962 62.9962 1 1 0
0.124147 62.9966 62.9966 1 1 0
0.124151 62.9971 62.9971 1 1 0
0.124154 62.9975 62.9975 1 1 0
0.124157 62.9979 62.9979 1 1 0
0.124161 62.9984 62.9984 1 1 0
0.124164 62.9988 62.9988 1 1 0
0.124167 62.9993 62.9993 1 1 0
0.124171 62.9997 62.9997 1 1 0
0.124174 63.0001 63.0001 1 1 0
0.124178 63.0006 63.0006 1 1 0
0.124181 63.001 63.001 1 1 0
0.124184 63.0015 63.0015 1 1 0
0.124188 63.0019 63.0019 1 1 0
0.124191 63.0024 63.0024 1 1 0
0.124194 63.0028 63.0028 1 1 0
0.124198 63.0032 63.0032 1 1 0
0.124201 63.0037 63.0037 1 1 0
0.124204 63.0041 63.0041 1 1 0
0.124208 63.0046 63.0046 1 1 0
0.124211 63.005 63.005 1 1 0
0.124214 63.0054 63.0054 1 1 0
0.124218 63.0059 63.0059 1 1 0
0.124221 63.0063 63.0063 1 1 0
0.124224 63.0068 63.0068 1 1 0
0.124228 63.0072 63.0072 1 1 0
0.124231 63.0076 63.0076 1 1 0
0.124234 63.0081 63.0081 1 1 0
0.124238 63.0085 63.0085 1 1 0
0.124241 63.009 63.009 1 1 0
0.124244 63.0094 63.0094 1 1 0
0.124248 63.0098 63.0098 1 1 0
0.124251 63.0103 63.0103 1 1 0
0.124254 63.0107 63.0107 1 1 0
0.124258 63.0112 63.0112 1 1 0
0.124261 63.0116 63.0116 1 1 0
0.124265 63.0121 63.0121 1 1 0
0.124268 63.0125 63.0125 1 1 0
0.124271 63.0129 63.0129 1 1 0
0.124275 63.0134 63.0134 1 1 0
0.124278 63.0138 63.0138 1 1 0
0.124281 63.0143 63.0143 1 1 0
0.124285 63.0147 63.0147 1 1 0
0.124288 63.0151 63.0151 1 1 0
0.124291 63.0156 63.0156 1 1 0
0.124295 63.016 63.016 1 1 0
0.124298 63.0165 63.0165 1 1 0
0.124301 63.0169 63.0169 1 1 0
0.124305 63.0173 63.0173 1 1 0
0.124308 63.0178 63.0178 1 1 0
0.124311 63.0182 63.0182 1 1 0
0.124315 63.0187 63.0187 1 1 0
0.124318 63.0191 63.0191 1 1 0
0.124322 63.0196 63.0196 1 1 0
0.124325 63.02 63.02 1 1 0
0.124328 63.0204 63.0204 1 1 0
0.124332 63.0209 63.0209 1 1 0
0.124335 63.0213 63.0213 1 1 0
0.124338 63.0218 63.0218 1 1 0
0.124342 63.0222 63.0222 1 1 0
0.124345 63.0226 63.0226 1 1 0
0.124348 63.0231 63.0231 1 1 0
0.124352 63.0235 63.0235 1 1 0
0.124355 63.024 63.024 1 1 0
0.124358 63.0244 63.0244 1 1 0
0.124362 63.0248 63.0248 1 1 0
0.124365 63.0253 63.0253 1 1 0
0.124369 63.0257 63.0257 1 1 0
0.124372 63.0262 63.0262 1 1 0
0.124375 63.0266 63.0266 1 1 0
0.124379 63.027 63.027 1 1 0
0.124382 63.0275 63.0275 1 1 0
0.124385 63.0279 63.0279 1 1 0
0.124389 63.0284 63.0284 1 1 0
0.124392 63.0288 63.0288 1 1 0
0.124395 63.0293 63.0293 1 1 0
0.124399 63.0297 63.0297 1 1 0
0.124402 63.0301 63.0301 1 1 0
0.124406 63.0306 63.0306 1 1 0
0.124409 63.031 63.031 1 1 0
0.124412 63.0315 63.0315 1 1 0
0.124416 63.0319 63.0319 1 1 0
0.124419 63.0323 63.0323 1 1 0
0.124422 63.0328 63.0328 1 1 0
0.124426 63.0332 63.0332 1 1 0
0.124429 63.0337 63.0337 1 1 0
0.124433 63.0341 63.0341 1 1 0
0.124436 63.0345 63.0345 1 1 0
0.124439 63.035 63.035 1 1 0
0.124443 63.0354 63.0354 1 1 0
0.124446 63.0359 63.0359 1 1 0
0.124449 63.0363 63.0363 1 1 0
0.124453 63.0368 63.0368 1 1 0
0.124456 63.0372 63.0372 1 1 0
0.124459 63.0376 63.0376 1 1 0
0.124463 63.0381 63.0381 1 1 0
0.124466 63.0385 63.0385 1 1 0
0.12447 63.039 63.039 1 1 0
0.124473 63.0394 63.0394 1 1 0
0.124476 63.0398 63.0398 1 1 0
0.12448 63.0403 63.0403 1 1 0
0.124483 63.0407 63.0407 1 1 0
0.124486 63.0412 63.0412 1 1 0
0.12449 63.0416 63.0416 1 1 0
0.124493 63.042 63.042 1 1 0
0.124497 63.0425 63.0425 1 1 0
0.1245 63.0429 63.0429 1 1 0
0.124503 63.0434 63.0434 1 1 0
0.124507 63.0438 63.0438 1 1 0
0.12451 63.0442 63.0442 1 1 0
0.124513 63.0447 63.0447 1 1 0
0.124517 63.0451 63.0451 1 1 0
0.12452 63.0456 63.0456 1 1 0
0.124524 63.046 63.046 1 1 0
0.124527 63.0465 63.0465 1 1 0
0.12453 63.0469 63.0469 1 1 0
0.124534 63.0473 63.0473 1 1 0
0.124537 63.0478 63.0478 1 1 0
0.12454 63.0482 63.0482 1 1 0
0.124544 63.0487 63.0487 1 1 0
0.124547 63.0491 63.0491 1 1 0
0.124551 63.0495 63.0495 1 1 0
0.124554 63.05 63.05 1 1 0
0.124557 63.0504 63.0504 1 1 0
0.124561 63.0509 63.0509 1 1 0
0.124564 63.0513 63.0513 1 1 0
0.124567 63.0517 63.0517 1 1 0
0.124571 63.0522 63.0522 1 1 0
0.124574 63.0526 63.0526 1 1 0
0.124578 63.0531 63.0531 1 1 0
0.124581 63.0535 63.0535 1 1 0
0.124584 63.0539 63.0539 1 1 0
0.124588 63.0544 63.0544 1 1 0
0.124591 63.0548 63.0548 1 1 0
0.124595 63.0553 63.0553 1 1 0
0.124598 63.0557 63.0557 1 1 0
0.124601 63.0562 63.0562 1 1 0
0.124605 63.0566 63.0566 1 1 0
0.124608 63.057 63.057 1 1 0
0.124611 63.0575 63.0575 1 1 0
0.124615 63.0579 63.0579 1 1 0
0.124618 63.0584 63.0584 1 1 0
0.124622 63.0588 63.0588 1 1 0
0.124625 63.0592 63.0592 1 1 0
0.124628 63.0597 63.0597 1 1 0
0.124632 63.0601 63.0601 1 1 0
0.124635 63.0606 63.0606 1 1 0
0.124639 63.061 63.061 1 1 0
0.124642 63.0614 63.0614 1 1 0
0.124645 63.0619 63.0619 1 1 0
0.124649 63.0623 63.0623 1 1 0
0.124652 63.0628 63.0628 1 1 0
0.124655 63.0632 63.0632 1 1 0
0.124659 63.0637 63.0637 1 1 0
0.124662 63.0641 63.0641 1 1 0
0.124666 63.0645 63.0645 1 1 0
0.124669 63.065 63.065 1 1 0
0.124672 63.0654 63.0654 1 1 0
0.124676 63.0659 63.0659 1 1 0
0.124679 63.0663 63.0663 1 1 0
0.124683 63.0667 63.0667 1 1 0
0.124686 63.0672 63.0672 1 1 0
0.124689 63.0676 63.0676 1 1 0
0.124693 63.0681 63.0681 1 1 0
0.124696 63.0685 63.0685 1 1 0
0.1247 63.0689 63.0689 1 1 0
0.124703 63.0694 63.0694 1 1 0
0.124706 63.0698 63.0698 1 1 0
0.12471 63.0703 63.0703 1 1 0
0.124713 63.0707 63.0707 1 1 0
0.124717 63.0711 63.0711 1 1 0
0.12472 63.0716 63.0716 1 1 0
0.124723 63.072 63.072 1 1 0
0.124727 63.0725 63.0725 1 1 0
0.12473 63.0729 63.0729 1 1 0
0.124734 63.0734 63.0734 1 1 0
0.124737 63.0738 63.0738 1 1 0
0.12474 63.0742 63.0742 1 1 0
0.124744 63.0747 63.0747 1 1 0
0.124747 63.0751 63.0751 1 1 0
0.12475 63.0756 63.0756 1 1 0
0.124754 63.076 63.076 1 1 0
0.124757 63.0764 63.0764 1 1 0
0.124761 63.0769 63.0769 1 1 0
0.124764 63.0773 63.0773 1 1 0
0.124767 63.0778 63.0778 1 1 0
0.124771 63.0782 63.0782 1 1 0
0.124774 63.0786 63.0786 1 1 0
0.124778 63.0791 63.0791 1 1 0
0.124781 63.0795 63.0795 1 1 0
0.124785 63.08 63.08 1 1 0
0.124788 63.0804 63.0804 1 1 0
0.124791 63.0808 63.0808 1 1 0
0.124795 63.0813 63.0813 1 1 0
0.124798 63.0817 63.0817 1 1 0
0.124802 63.0822 63.0822 1 1 0
0.124805 63.0826 63.0826 1 1 0
0.124808 63.0831 63.0831 1 1 0
0.124812 63.0835 63.0835 1 1 0
0.124815 63.0839 63.0839 1 1 0
0.124819 63.0844 63.0844 1 1 0
0.124822 63.0848 63.0848 1 1 0
0.124825 63.0853 63.0853 1 1 0
0.124829 63.0857 63.0857 1 1 0
0.124832 63.0861 63.0861 1 1 0
0.124836 63.0866 63.0866 1 1 0
0.124839 63.087 63.087 1 1 0
0.124842 63.0875 63.0875 1 1 0
0.124846 63.0879 63.0879 1 1 0
0.124849 63.0883 63.0883 1 1 0
0.124853 63.0888 63.0888 1 1 0
0.124856 63.0892 63.0892 1 1 0
0.124859 63.0897 63.0897 1 1 0
0.124863 63.0901 63.0901 1 1 0
0.124866 63.0906 63.0906 1 1 0
0.12487 63.091 63.091 1 1 0
0.124873 63.0914 63.0914 1 1 0
0.124876 63.0919 63.0919 1 1 0
0.12488 63.0923 63.0923 1 1 0
0.124883 63.0928 63.0928 1 1 0
0.124887 63.0932 63.0932 1 1 0
0.12489 63.0936 63.0936 1 1 0
0.124894 63.0941 63.0941 1 1 0
0.124897 63.0945 63.0945 1 1 0
0.1249 63.095 63.095 1 1 0
0.124904 63.0954 63.0954 1 1 0
0.124907 63.0958 63.0958 1 1 0
0.124911 63.0963 63.0963 1 1 0
0.124914 63.0967 63.0967 1 1 0
0.124917 63.0972 63.0972 1 1 0
0.124921 63.0976 63.0976 1 1 0
0.124924 63.098 63.098 1 1 0
0.124928 63.0985 63.0985 1 1 0
0.124931 63.0989 63.0989 1 1 0
0.124935 63.0994 63.0994 1 1 0
0.124938 63.0998 63.0998 1 1 0
0.124941 63.1003 63.1003 1 1 0
0.124945 63.1007 63.1007 1 1 0
0.124948 63.1011 63.1011 1 1 0
0.124952 63.1016 63.1016 1 1 0
0.124955 63.102 63.102 1 1 0
0.124958 63.1025 63.1025 1 1 0
0.124962 63.1029 63.1029 1 1 0
0.124965 63.1033 63.1033 1 1 0
0.124969 63.1038 63.1038 1 1 0
0.124972 63.1042 63.1042 1 1 0
0.124976 63.1047 63.1047 1 1 0
0.124979 63.1051 63.1051 1 1 0
0.124982 63.1055 63.1055 1 1 0
0.124986 63.106 63.106 1 1 0
0.124989 63.1064 63.1064 1 1 0
0.124993 63.1069 63.1069 1 1 0
0.124996 63.1073 63.1073 1 1 0
0.124999 63.1077 63.1077 1 1 0
0.125003 63.1082 63.1082 1 1 0
0.125006 63.1086 63.1086 1 1 0
0.12501 63.1091 63.1091 1 1 0
0.125013 63.1095 63.1095 1 1 0
0.125017 63.11 63.11 1 1 0
0.12502 63.1104 63.1104 1 1 0
0.125023 63.1108 63.1108 1 1 0
0.125027 63.1113 63.1113 1 1 0
0.12503 63.1117 63.1117 1 1 0
0.125034 63.1122 63.1122 1 1 0
0.125037 63.1126 63.1126 1 1 0
0.125041 63.113 63.113 1 1 0
0.125044 63.1135 63.1135 1 1 0
0.125047 63.1139 63.1139 1 1 0
0.125051 63.1144 63.1144 1 1 0
0.125054 63.1148 63.1148 1 1 0
0.125058 63.1152 63.1152 1 1 0
0.125061 63.1157 63.1157 1 1 0
0.125065 63.1161 63.1161 1 1 0
0.125068 63.1166 63.1166 1 1 0
0.125071 63.117 63.117 1 1 0
0.125075 63.1175 63.1175 1 1 0
0.125078 63.1179 63.1179 1 1 0
0.125082 63.1183 63.1183 1 1 0
0.125085 63.1188 63.1188 1 1 0
0.125089 63.1192 63.1192 1 1 0
0.125092 63.1197 63.1197 1 1 0
0.125095 63.1201 63.1201 1 1 0
0.125099 63.1205 63.1205 1 1 0
0.125102 63.121 63.121 1 1 0
0.125106 63.1214 63.1214 1 1 0
0.125109 63.1219 63.1219 1 1 0
0.125113 63.1223 63.1223 1 1 0
0.125116 63.1227 63.1227 1 1 0
0.12512 63.1232 63.1232 1 1 0
0.125123 63.1236 63.1236 1 1 0
0.125126 63.1241 63.1241 1 1 0
0.12513 63.1245 63.1245 1 1 0
0.125133 63.1249 63.1249 1 1 0
0.125137 63.1254 63.1254 1 1 0
0.12514 63.1258 63.1258 1 1 0
0.125144 63.1263 63.1263 1 1 0
0.125147 63.1267 63.1267 1 1 0
0.12515 63.1272 63.1272 1 1 0
0.125154 63.1276 63.1276 1 1 0
0.125157 63.128 63.128 1 1 0
0.125161 63.1285 63.1285 1 1 0
0.125164 63.1289 63.1289 1 1 0
0.125168 63.1294 63.1294 1 1 0
0.125171 63.1298 63.1298 1 1 0
0.125175 63.1302 63.1302 1 1 0
0.125178 63.1307 63.1307 1 1 0
0.125181 63.1311 63.1311 1 1 0
0.125185 63.1316 63.1316 1 1 0
0.125188 63.132 63.132 1 1 0
0.125192 63.1324 63.1324 1 1 0
0.125195 63.1329 63.1329 1 1 0
0.125199 63.1333 63.1333 1 1 0
0.125202 63.1338 63.1338 1 1 0
0.125205 63.1342 63.1342 1 1 0
0.125209 63.1346 63.1346 1 1 0
0.125212 63.1351 63.1351 1 1 0
0.125216 63.1355 63.1355 1 1 0
0.125219 63.136 63.136 1 1 0
0.125223 63.1364 63.1364 1 1 0
0.125226 63.1369 63.1369 1 1 0
0.12523 63.1373 63.1373 1 1 0
0.125233 63.1377 63.1377 1 1 0
0.125237 63.1382 63.1382 1 1 0
0.12524 63.1386 63.1386 1 1 0
0.125243 63.1391 63.1391 1 1 0
0.125247 63.1395 63.1395 1 1 0
0.12525 63.1399 63.1399 1 1 0
0.125254 63.1404 63.1404 1 1 0
0.125257 63.1408 63.1408 1 1 0
0.125261 63.1413 63.1413 1 1 0
0.125264 63.1417 63.1417 1 1 0
0.125268 63.1421 63.1421 1 1 0
0.125271 63.1426 63.1426 1 1 0
0.125274 63.143 63.143 1 1 0
0.125278 63.1435 63.1435 1 1 0
0.125281 63.1439 63.1439 1 1 0
0.125285 63.1444 63.1444 1 1 0
0.125288 63.1448 63.1448 1 1 0
0.125292 63.1452 63.1452 1 1 0
0.125295 63.1457 63.1457 1 1 0
0.125299 63.1461 63.1461 1 1 0
0.125302 63.1466 63.1466 1 1 0
0.125306 63.147 63.147 1 1 0
0.125309 63.1474 63.1474 1 1 0
0.125312 63.1479 63.1479 1 1 0
0.125316 63.1483 63.1483 1 1 0
0.125319 63.1488 63.1488 1 1 0
0.125323 63.1492 63.1492 1 1 0
0.125326 63.1496 63.1496 1 1 0
0.12533 63.1501 63.1501 1 1 0
0.125333 63.1505 63.1505 1 1 0
0.125337 63.151 63.151 1 1 0
0.12534 63.1514 63.1514 1 1 0
0.125344 63.1518 63.1518 1 1 0
0.125347 63.1523 63.1523 1 1 0
0.12535 63.1527 63.1527 1 1 0
0.125354 63.1532 63.1532 1 1 0
0.125357 63.1536 63.1536 1 1 0
0.125361 63.1541 63.1541 1 1 0
0.125364 63.1545 63.1545 1 1 0
0.125368 63.1549 63.1549 1 1 0
0.125371 63.1554 63.1554 1 1 0
0.125375 63.1558 63.1558 1 1 0
0.125378 63.1563 63.1563 1 1 0
0.125382 63.1567 63.1567 1 1 0
0.125385 63.1571 63.1571 1 1 0
0.125389 63.1576 63.1576 1 1 0
0.125392 63.158 63.158 1 1 0
0.125395 63.1585 63.1585 1 1 0
0.125399 63.1589 63.1589 1 1 0
0.125402 63.1593 63.1593 1 1 0
0.125406 63.1598 63.1598 1 1 0
0.125409 63.1602 63.1602 1 1 0
0.125413 63.1607 63.1607 1 1 0
0.125416 63.1611 63.1611 1 1 0
0.12542 63.1615 63.1615 1 1 0
0.125423 63.162 63.162 1 1 0
0.125427 63.1624 63.1624 1 1 0
0.12543 63.1629 63.1629 1 1 0
0.125434 63.1633 63.1633 1 1 0
0.125437 63.1638 63.1638 1 1 0
0.12544 63.1642 63.1642 1 1 0
0.125444 63.1646 63.1646 1 1 0
0.125447 63.1651 63.1651 1 1 0
0.125451 63.1655 63.1655 1 1 0
0.125454 63.166 63.166 1 1 0
0.125458 63.1664 63.1664 1 1 0
0.125461 63.1668 63.1668 1 1 0
0.125465 63.1673 63.1673 1 1 0
0.125468 63.1677 63.1677 1 1 0
0.125472 63.1682 63.1682 1 1 0
0.125475 63.1686 63.1686 1 1 0
0.125479 63.169 63.169 1 1 0
0.125482 63.1695 63.1695 1 1 0
0.125486 63.1699 63.1699 1 1 0
0.125489 63.1704 63.1704 1 1 0
0.125493 63.1708 63.1708 1 1 0
0.125496 63.1712 63.1712 1 1 0
0.125499 63.1717 63.1717 1 1 0
0.125503 63.1721 63.1721 1 1 0
0.125506 63.1726 63.1726 1 1 0
0.12551 63.173 63.173 1 1 0
0.125513 63.1735 63.1735 1 1 0
0.125517 63.1739 63.1739 1 1 0
0.12552 63.1743 63.1743 1 1 0
0.125524 63.1748 63.1748 1 1 0
0.125527 63.1752 63.1752 1 1 0
0.125531 63.1757 63.1757 1 1 0
0.125534 63.1761 63.1761 1 1 0
0.125538 63.1765 63.1765 1 1 0
0.125541 63.177 63.177 1 1 0
0.125545 63.1774 63.1774 1 1 0
0.125548 63.1779 63.1779 1 1 0
0.125552 63.1783 63.1783 1 1 0
0.125555 63.1787 63.1787 1 1 0
0.125559 63.1792 63.1792 1 1 0
0.125562 63.1796 63.1796 1 1 0
0.125566 63.1801 63.1801 1 1 0
0.125569 63.1805 63.1805 1 1 0
0.125572 63.181 63.181 1 1 0
0.125576 63.1814 63.1814 1 1 0
0.125579 63.1818 63.1818 1 1 0
0.125583 63.1823 63.1823 1 1 0
0.125586 63.1827 63.1827 1 1 0
0.12559 63.1832 63.1832 1 1 0
0.125593 63.1836 63.1836 1 1 0
0.125597 63.184 63.184 1 1 0
0.1256 63.1845 63.1845 1 1 0
0.125604 63.1849 63.1849 1 1 0
0.125607 63.1854 63.1854 1 1 0
0.125611 63.1858 63.1858 1 1 0
0.125614 63.1862 63.1862 1 1 0
0.125618 63.1867 63.1867 1 1 0
0.125621 63.1871 63.1871 1 1 0
0.125625 63.1876 63.1876 1 1 0
0.125628 63.188 63.188 1 1 0
0.125632 63.1884 63.1884 1 1 0
0.125635 63.1889 63.1889 1 1 0
0.125639 63.1893 63.1893 1 1 0
0.125642 63.1898 63.1898 1 1 0
0.125646 63.1902 63.1902 1 1 0
0.125649 63.1907 63.1907 1 1 0
0.125653 63.1911 63.1911 1 1 0
0.125656 63.1915 63.1915 1 1 0
0.12566 63.192 63.192 1 1 0
0.125663 63.1924 63.1924 1 1 0
0.125667 63.1929 63.1929 1 1 0
0.12567 63.1933 63.1933 1 1 0
0.125674 63.1937 63.1937 1 1 0
0.125677 63.1942 63.1942 1 1 0
0.125681 63.1946 63.1946 1 1 0
0.125684 63.1951 63.1951 1 1 0
0.125688 63.1955 63.1955 1 1 0
0.125691 63.1959 63.1959 1 1 0
0.125695 63.1964 63.1964 1 1 0
0.125698 63.1968 63.1968 1 1 0
0.125702 63.1973 63.1973 1 1 0
0.125705 63.1977 63.1977 1 1 0
0.125709 63.1981 63.1981 1 1 0
0.125712 63.1986 63.1986 1 1 0
0.125716 63.199 63.199 1 1 0
0.125719 63.1995 63.1995 1 1 0
0.125723 63.1999 63.1999 1 1 0
0.125726 63.2004 63.2004 1 1 0
0.125729 63.2008 63.2008 1 1 0
0.125733 63.2012 63.2012 1 1 0
0.125736 63.2017 63.2017 1 1 0
