0.12726 0.121402 0.121402 1 1 0
0.127264 0.121406 0.121406 1 1 0
0.127268 0.12141 0.12141 1 1 0
0.127271 0.121414 0.121414 1 1 0
0.127275 0.121418 0.121418 1 1 0
0.127279 0.121422 0.121422 1 1 0
0.127282 0.121426 0.121426 1 1 0
0.127286 0.12143 0.12143 1 1 0
0.12729 0.121434 0.121434 1 1 0
0.127293 0.121438 0.121438 1 1 0
0.127297 0.121442 0.121442 1 1 0
0.127301 0.121446 0.121446 1 1 0
0.127304 0.12145 0.12145 1 1 0
0.127308 0.121454 0.121454 1 1 0
0.127312 0.121459 0.121459 1 1 0
0.127315 0.121463 0.121463 1 1 0
0.127319 0.121467 0.121467 1 1 0
0.127323 0.121471 0.121471 1 1 0
0.127326 0.121475 0.121475 1 1 0
0.12733 0.121479 0.121479 1 1 0
0.127334 0.121483 0.121483 1 1 0
0.127337 0.121487 0.121487 1 1 0
0.127341 0.121491 0.121491 1 1 0
0.127345 0.121495 0.121495 1 1 0
0.127348 0.121499 0.121499 1 1 0
0.127352 0.121503 0.121503 1 1 0
0.127356 0.121507 0.121507 1 1 0
0.127359 0.121511 0.121511 1 1 0
0.127363 0.121515 0.121515 1 1 0
0.127367 0.121519 0.121519 1 1 0
0.12737 0.121523 0.121523 1 1 0
0.127374 0.121527 0.121527 1 1 0
0.127378 0.121531 0.121531 1 1 0
0.127381 0.121535 0.121535 1 1 0
0.127385 0.121539 0.121539 1 1 0
0.127389 0.121543 0.121543 1 1 0
0.127392 0.121547 0.121547 1 1 0
0.127396 0.121551 0.121551 1 1 0
0.1274 0.121555 0.121555 1 1 0
0.127403 0.121559 0.121559 1 1 0
0.127407 0.121563 0.121563 1 1 0
0.127411 0.121567 0.121567 1 1 0
0.127414 0.121571 0.121571 1 1 0
0.127418 0.121575 0.121575 1 1 0
0.127422 0.121579 0.121579 1 1 0
0.127425 0.121583 0.121583 1 1 0
0.127429 0.121587 0.121587 1 1 0
0.127433 0.121591 0.121591 1 1 0
0.127436 0.121595 0.121595 1 1 0
0.12744 0.121599 0.121599 1 1 0
0.127444 0.121603 0.121603 1 1 0
0.127447 0.121607 0.121607 1 1 0
0.127451 0.121611 0.121611 1 1 0
0.127455 0.121615 0.121615 1 1 0
0.127459 0.121619 0.121619 1 1 0
0.127462 0.121623 0.121623 1 1 0
0.127466 0.121627 0.121627 1 1 0
0.12747 0.121631 0.121631 1 1 0
0.127473 0.121635 0.121635 1 1 0
0.127477 0.121639 0.121639 1 1 0
0.127481 0.121643 0.121643 1 1 0
0.127484 0.121648 0.121648 1 1 0
0.127488 0.121652 0.121652 1 1 0
0.127492 0.121656 0.121656 1 1 0
0.127495 0.12166 0.12166 1 1 0
0.127499 0.121664 0.121664 1 1 0
0.127503 0.121668 0.121668 1 1 0
0.127506 0.121672 0.121672 1 1 0
0.12751 0.121676 0.121676 1 1 0
0.127514 0.12168 0.12168 1 1 0
0.127517 0.121684 0.121684 1 1 0
0.127521 0.121688 0.121688 1 1 0
0.127525 0.121692 0.121692 1 1 0
0.127529 0.121696 0.121696 1 1 0
0.127532 0.1217 0.1217 1 1 0
0.127536 0.121704 0.121704 1 1 0
0.12754 0.121708 0.121708 1 1 0
0.127543 0.121712 0.121712 1 1 0
0.127547 0.121716 0.121716 1 1 0
0.127551 0.12172 0.12172 1 1 0
0.127554 0.121724 0.121724 1 1 0
0.127558 0.121728 0.121728 1 1 0
0.127562 0.121732 0.121732 1 1 0
0.127565 0.121736 0.121736 1 1 0
0.127569 0.12174 0.12174 1 1 0
0.127573 0.121744 0.121744 1 1 0
0.127577 0.121748 0.121748 1 1 0
0.12758 0.121752 0.121752 1 1 0
0.127584 0.121756 0.121756 1 1 0
0.127588 0.12176 0.12176 1 1 0
0.127591 0.121764 0.121764 1 1 0
0.127595 0.121768 0.121768 1 1 0
0.127599 0.121772 0.121772 1 1 0
0.127602 0.121776 0.121776 1 1 0
0.127606 0.12178 0.12178 1 1 0
0.12761 0.121784 0.121784 1 1 0
0.127613 0.121788 0.121788 1 1 0
0.127617 0.121792 0.121792 1 1 0
0.127621 0.121796 0.121796 1 1 0
0.127625 0.1218 0.1218 1 1 0
0.127628 0.121804 0.121804 1 1 0
0.127632 0.121808 0.121808 1 1 0
0.127636 0.121812 0.121812 1 1 0
0.127639 0.121816 0.121816 1 1 0
0.127643 0.12182 0.12182 1 1 0
0.127647 0.121824 0.121824 1 1 0
0.12765 0.121828 0.121828 1 1 0
0.127654 0.121832 0.121832 1 1 0
0.127658 0.121837 0.121837 1 1 0
0.127662 0.121841 0.121841 1 1 0
0.127665 0.121845 0.121845 1 1 0
0.127669 0.121849 0.121849 1 1 0
0.127673 0.121853 0.121853 1 1 0
0.127676 0.121857 0.121857 1 1 0
0.12768 0.121861 0.121861 1 1 0
0.127684 0.121865 0.121865 1 1 0
0.127688 0.121869 0.121869 1 1 0
0.127691 0.121873 0.121873 1 1 0
0.127695 0.121877 0.121877 1 1 0
0.127699 0.121881 0.121881 1 1 0
0.127702 0.121885 0.121885 1 1 0
0.127706 0.121889 0.121889 1 1 0
0.12771 0.121893 0.121893 1 1 0
0.127713 0.121897 0.121897 1 1 0
0.127717 0.121901 0.121901 1 1 0
0.127721 0.121905 0.121905 1 1 0
0.127725 0.121909 0.121909 1 1 0
0.127728 0.121913 0.121913 1 1 0
0.127732 0.121917 0.121917 1 1 0
0.127736 0.121921 0.121921 1 1 0
0.127739 0.121925 0.121925 1 1 0
0.127743 0.121929 0.121929 1 1 0
0.127747 0.121933 0.121933 1 1 0
0.127751 0.121937 0.121937 1 1 0
0.127754 0.121941 0.121941 1 1 0
0.127758 0.121945 0.121945 1 1 0
0.127762 0.121949 0.121949 1 1 0
0.127765 0.121953 0.121953 1 1 0
0.127769 0.121957 0.121957 1 1 0
0.127773 0.121961 0.121961 1 1 0
0.127777 0.121965 0.121965 1 1 0
0.12778 0.121969 0.121969 1 1 0
0.127784 0.121973 0.121973 1 1 0
0.127788 0.121977 0.121977 1 1 0
0.127791 0.121981 0.121981 1 1 0
0.127795 0.121985 0.121985 1 1 0
0.127799 0.121989 0.121989 1 1 0
0.127803 0.121993 0.121993 1 1 0
0.127806 0.121997 0.121997 1 1 0
0.12781 0.122001 0.122001 1 1 0
0.127814 0.122005 0.122005 1 1 0
0.127818 0.122009 0.122009 1 1 0
0.127821 0.122013 0.122013 1 1 0
0.127825 0.122017 0.122017 1 1 0
0.127829 0.122021 0.122021 1 1 0
0.127832 0.122026 0.122026 1 1 0
0.127836 0.12203 0.12203 1 1 0
0.12784 0.122034 0.122034 1 1 0
0.127844 0.122038 0.122038 1 1 0
0.127847 0.122042 0.122042 1 1 0
0.127851 0.122046 0.122046 1 1 0
0.127855 0.12205 0.12205 1 1 0
0.127858 0.122054 0.122054 1 1 0
0.127862 0.122058 0.122058 1 1 0
0.127866 0.122062 0.122062 1 1 0
0.12787 0.122066 0.122066 1 1 0
0.127873 0.12207 0.12207 1 1 0
0.127877 0.122074 0.122074 1 1 0
0.127881 0.122078 0.122078 1 1 0
0.127885 0.122082 0.122082 1 1 0
0.127888 0.122086 0.122086 1 1 0
0.127892 0.12209 0.12209 1 1 0
0.127896 0.122094 0.122094 1 1 0
0.127899 0.122098 0.122098 1 1 0
0.127903 0.122102 0.122102 1 1 0
0.127907 0.122106 0.122106 1 1 0
0.127911 0.12211 0.12211 1 1 0
0.127914 0.122114 0.122114 1 1 0
0.127918 0.122118 0.122118 1 1 0
0.127922 0.122122 0.122122 1 1 0
0.127926 0.122126 0.122126 1 1 0
0.127929 0.12213 0.12213 1 1 0
0.127933 0.122134 0.122134 1 1 0
0.127937 0.122138 0.122138 1 1 0
0.127941 0.122142 0.122142 1 1 0
0.127944 0.122146 0.122146 1 1 0
0.127948 0.12215 0.12215 1 1 0
0.127952 0.122154 0.122154 1 1 0
0.127956 0.122158 0.122158 1 1 0
0.127959 0.122162 0.122162 1 1 0
0.127963 0.122166 0.122166 1 1 0
0.127967 0.12217 0.12217 1 1 0
0.12797 0.122174 0.122174 1 1 0
0.127974 0.122178 0.122178 1 1 0
0.127978 0.122182 0.122182 1 1 0
0.127982 0.122186 0.122186 1 1 0
0.127985 0.12219 0.12219 1 1 0
0.127989 0.122194 0.122194 1 1 0
0.127993 0.122198 0.122198 1 1 0
0.127997 0.122202 0.122202 1 1 0
0.128 0.122206 0.122206 1 1 0
0.128004 0.12221 0.12221 1 1 0
0.128008 0.122214 0.122214 1 1 0
0.128012 0.122218 0.122218 1 1 0
0.128015 0.122223 0.122223 1 1 0
0.128019 0.122227 0.122227 1 1 0
0.128023 0.122231 0.122231 1 1 0
0.128027 0.122235 0.122235 1 1 0
0.12803 0.122239 0.122239 1 1 0
0.128034 0.122243 0.122243 1 1 0
0.128038 0.122247 0.122247 1 1 0
0.128042 0.122251 0.122251 1 1 0
0.128045 0.122255 0.122255 1 1 0
0.128049 0.122259 0.122259 1 1 0
0.128053 0.122263 0.122263 1 1 0
0.128057 0.122267 0.122267 1 1 0
0.12806 0.122271 0.122271 1 1 0
0.128064 0.122275 0.122275 1 1 0
0.128068 0.122279 0.122279 1 1 0
0.128072 0.122283 0.122283 1 1 0
0.128075 0.122287 0.122287 1 1 0
0.128079 0.122291 0.122291 1 1 0
0.128083 0.122295 0.122295 1 1 0
0.128087 0.122299 0.122299 1 1 0
0.12809 0.122303 0.122303 1 1 0
0.128094 0.122307 0.122307 1 1 0
0.128098 0.122311 0.122311 1 1 0
0.128102 0.122315 0.122315 1 1 0
0.128105 0.122319 0.122319 1 1 0
0.128109 0.122323 0.122323 1 1 0
0.128113 0.122327 0.122327 1 1 0
0.128117 0.122331 0.122331 1 1 0
0.12812 0.122335 0.122335 1 1 0
0.128124 0.122339 0.122339 1 1 0
0.128128 0.122343 0.122343 1 1 0
0.128132 0.122347 0.122347 1 1 0
0.128135 0.122351 0.122351 1 1 0
0.128139 0.122355 0.122355 1 1 0
0.128143 0.122359 0.122359 1 1 0
0.128147 0.122363 0.122363 1 1 0
0.12815 0.122367 0.122367 1 1 0
0.128154 0.122371 0.122371 1 1 0
0.128158 0.122375 0.122375 1 1 0
0.128162 0.122379 0.122379 1 1 0
0.128165 0.122383 0.122383 1 1 0
0.128169 0.122387 0.122387 1 1 0
0.128173 0.122391 0.122391 1 1 0
0.128177 0.122395 0.122395 1 1 0
0.12818 0.122399 0.122399 1 1 0
0.128184 0.122403 0.122403 1 1 0
0.128188 0.122407 0.122407 1 1 0
0.128192 0.122411 0.122411 1 1 0
0.128196 0.122415 0.122415 1 1 0
0.128199 0.122419 0.122419 1 1 0
0.128203 0.122424 0.122424 1 1 0
0.128207 0.122428 0.122428 1 1 0
0.128211 0.122432 0.122432 1 1 0
0.128214 0.122436 0.122436 1 1 0
0.128218 0.12244 0.12244 1 1 0
0.128222 0.122444 0.122444 1 1 0
0.128226 0.122448 0.122448 1 1 0
0.128229 0.122452 0.122452 1 1 0
0.128233 0.122456 0.122456 1 1 0
0.128237 0.12246 0.12246 1 1 0
0.128241 0.122464 0.122464 1 1 0
0.128244 0.122468 0.122468 1 1 0
0.128248 0.122472 0.122472 1 1 0
0.128252 0.122476 0.122476 1 1 0
0.128256 0.12248 0.12248 1 1 0
0.12826 0.122484 0.122484 1 1 0
0.128263 0.122488 0.122488 1 1 0
0.128267 0.122492 0.122492 1 1 0
0.128271 0.122496 0.122496 1 1 0
0.128275 0.1225 0.1225 1 1 0
0.128278 0.122504 0.122504 1 1 0
0.128282 0.122508 0.122508 1 1 0
0.128286 0.122512 0.122512 1 1 0
0.12829 0.122516 0.122516 1 1 0
0.128294 0.12252 0.12252 1 1 0
0.128297 0.122524 0.122524 1 1 0
0.128301 0.122528 0.122528 1 1 0
0.128305 0.122532 0.122532 1 1 0
0.128309 0.122536 0.122536 1 1 0
0.128312 0.12254 0.12254 1 1 0
0.128316 0.122544 0.122544 1 1 0
0.12832 0.122548 0.122548 1 1 0
0.128324 0.122552 0.122552 1 1 0
0.128328 0.122556 0.122556 1 1 0
0.128331 0.12256 0.12256 1 1 0
0.128335 0.122564 0.122564 1 1 0
0.128339 0.122568 0.122568 1 1 0
0.128343 0.122572 0.122572 1 1 0
0.128346 0.122576 0.122576 1 1 0
0.12835 0.12258 0.12258 1 1 0
0.128354 0.122584 0.122584 1 1 0
0.128358 0.122588 0.122588 1 1 0
0.128362 0.122592 0.122592 1 1 0
0.128365 0.122596 0.122596 1 1 0
0.128369 0.1226 0.1226 1 1 0
0.128373 0.122604 0.122604 1 1 0
0.128377 0.122608 0.122608 1 1 0
0.12838 0.122612 0.122612 1 1 0
0.128384 0.122616 0.122616 1 1 0
0.128388 0.12262 0.12262 1 1 0
0.128392 0.122624 0.122624 1 1 0
0.128396 0.122628 0.122628 1 1 0
0.128399 0.122633 0.122633 1 1 0
0.128403 0.122637 0.122637 1 1 0
0.128407 0.122641 0.122641 1 1 0
0.128411 0.122645 0.122645 1 1 0
0.128415 0.122649 0.122649 1 1 0
0.128418 0.122653 0.122653 1 1 0
0.128422 0.122657 0.122657 1 1 0
0.128426 0.122661 0.122661 1 1 0
0.12843 0.122665 0.122665 1 1 0
0.128434 0.122669 0.122669 1 1 0
0.128437 0.122673 0.122673 1 1 0
0.128441 0.122677 0.122677 1 1 0
0.128445 0.122681 0.122681 1 1 0
0.128449 0.122685 0.122685 1 1 0
0.128452 0.122689 0.122689 1 1 0
0.128456 0.122693 0.122693 1 1 0
0.12846 0.122697 0.122697 1 1 0
0.128464 0.122701 0.122701 1 1 0
0.128468 0.122705 0.122705 1 1 0
0.128471 0.122709 0.122709 1 1 0
0.128475 0.122713 0.122713 1 1 0
0.128479 0.122717 0.122717 1 1 0
0.128483 0.122721 0.122721 1 1 0
0.128487 0.122725 0.122725 1 1 0
0.12849 0.122729 0.122729 1 1 0
0.128494 0.122733 0.122733 1 1 0
0.128498 0.122737 0.122737 1 1 0
0.128502 0.122741 0.122741 1 1 0
0.128506 0.122745 0.122745 1 1 0
0.128509 0.122749 0.122749 1 1 0
0.128513 0.122753 0.122753 1 1 0
0.128517 0.122757 0.122757 1 1 0
0.128521 0.122761 0.122761 1 1 0
0.128525 0.122765 0.122765 1 1 0
0.128528 0.122769 0.122769 1 1 0
0.128532 0.122773 0.122773 1 1 0
0.128536 0.122777 0.122777 1 1 0
0.12854 0.122781 0.122781 1 1 0
0.128544 0.122785 0.122785 1 1 0
0.128547 0.122789 0.122789 1 1 0
0.128551 0.122793 0.122793 1 1 0
0.128555 0.122797 0.122797 1 1 0
0.128559 0.122801 0.122801 1 1 0
0.128563 0.122805 0.122805 1 1 0
0.128566 0.122809 0.122809 1 1 0
0.12857 0.122813 0.122813 1 1 0
0.128574 0.122817 0.122817 1 1 0
0.128578 0.122821 0.122821 1 1 0
0.128582 0.122825 0.122825 1 1 0
0.128586 0.122829 0.122829 1 1 0
0.128589 0.122833 0.122833 1 1 0
0.128593 0.122837 0.122837 1 1 0
0.128597 0.122841 0.122841 1 1 0
0.128601 0.122846 0.122846 1 1 0
0.128605 0.12285 0.12285 1 1 0
0.128608 0.122854 0.122854 1 1 0
0.128612 0.122858 0.122858 1 1 0
0.128616 0.122862 0.122862 1 1 0
0.12862 0.122866 0.122866 1 1 0
0.128624 0.12287 0.12287 1 1 0
0.128627 0.122874 0.122874 1 1 0
0.128631 0.122878 0.122878 1 1 0
0.128635 0.122882 0.122882 1 1 0
0.128639 0.122886 0.122886 1 1 0
0.128643 0.12289 0.12289 1 1 0
0.128647 0.122894 0.122894 1 1 0
0.12865 0.122898 0.122898 1 1 0
0.128654 0.122902 0.122902 1 1 0
0.128658 0.122906 0.122906 1 1 0
0.128662 0.12291 0.12291 1 1 0
0.128666 0.122914 0.122914 1 1 0
0.128669 0.122918 0.122918 1 1 0
0.128673 0.122922 0.122922 1 1 0
0.128677 0.122926 0.122926 1 1 0
0.128681 0.12293 0.12293 1 1 0
0.128685 0.122934 0.122934 1 1 0
0.128689 0.122938 0.122938 1 1 0
0.128692 0.122942 0.122942 1 1 0
0.128696 0.122946 0.122946 1 1 0
0.1287 0.12295 0.12295 1 1 0
0.128704 0.122954 0.122954 1 1 0
0.128708 0.122958 0.122958 1 1 0
0.128711 0.122962 0.122962 1 1 0
0.128715 0.122966 0.122966 1 1 0
0.128719 0.12297 0.12297 1 1 0
0.128723 0.122974 0.122974 1 1 0
0.128727 0.122978 0.122978 1 1 0
0.128731 0.122982 0.122982 1 1 0
0.128734 0.122986 0.122986 1 1 0
0.128738 0.12299 0.12299 1 1 0
0.128742 0.122994 0.122994 1 1 0
0.128746 0.122998 0.122998 1 1 0
0.12875 0.123002 0.123002 1 1 0
0.128754 0.123006 0.123006 1 1 0
0.128757 0.12301 0.12301 1 1 0
0.128761 0.123014 0.123014 1 1 0
0.128765 0.123018 0.123018 1 1 0
0.128769 0.123022 0.123022 1 1 0
0.128773 0.123026 0.123026 1 1 0
0.128777 0.12303 0.12303 1 1 0
0.12878 0.123034 0.123034 1 1 0
0.128784 0.123038 0.123038 1 1 0
0.128788 0.123042 0.123042 1 1 0
0.128792 0.123046 0.123046 1 1 0
0.128796 0.12305 0.12305 1 1 0
0.1288 0.123054 0.123054 1 1 0
0.128803 0.123058 0.123058 1 1 0
0.128807 0.123062 0.123062 1 1 0
0.128811 0.123067 0.123067 1 1 0
0.128815 0.123071 0.123071 1 1 0
0.128819 0.123075 0.123075 1 1 0
0.128823 0.123079 0.123079 1 1 0
0.128826 0.123083 0.123083 1 1 0
0.12883 0.123087 0.123087 1 1 0
0.128834 0.123091 0.123091 1 1 0
0.128838 0.123095 0.123095 1 1 0
0.128842 0.123099 0.123099 1 1 0
0.128846 0.123103 0.123103 1 1 0
0.128849 0.123107 0.123107 1 1 0
0.128853 0.123111 0.123111 1 1 0
0.128857 0.123115 0.123115 1 1 0
0.128861 0.123119 0.123119 1 1 0
0.128865 0.123123 0.123123 1 1 0
0.128869 0.123127 0.123127 1 1 0
0.128872 0.123131 0.123131 1 1 0
0.128876 0.123135 0.123135 1 1 0
0.12888 0.123139 0.123139 1 1 0
0.128884 0.123143 0.123143 1 1 0
0.128888 0.123147 0.123147 1 1 0
0.128892 0.123151 0.123151 1 1 0
0.128896 0.123155 0.123155 1 1 0
0.128899 0.123159 0.123159 1 1 0
0.128903 0.123163 0.123163 1 1 0
0.128907 0.123167 0.123167 1 1 0
0.128911 0.123171 0.123171 1 1 0
0.128915 0.123175 0.123175 1 1 0
0.128919 0.123179 0.123179 1 1 0
0.128922 0.123183 0.123183 1 1 0
0.128926 0.123187 0.123187 1 1 0
0.12893 0.123191 0.123191 1 1 0
0.128934 0.123195 0.123195 1 1 0
0.128938 0.123199 0.123199 1 1 0
0.128942 0.123203 0.123203 1 1 0
0.128946 0.123207 0.123207 1 1 0
0.128949 0.123211 0.123211 1 1 0
0.128953 0.123215 0.123215 1 1 0
0.128957 0.123219 0.123219 1 1 0
0.128961 0.123223 0.123223 1 1 0
0.128965 0.123227 0.123227 1 1 0
0.128969 0.123231 0.123231 1 1 0
0.128973 0.123235 0.123235 1 1 0
0.128976 0.123239 0.123239 1 1 0
0.12898 0.123243 0.123243 1 1 0
0.128984 0.123247 0.123247 1 1 0
0.128988 0.123251 0.123251 1 1 0
0.128992 0.123255 0.123255 1 1 0
0.128996 0.123259 0.123259 1 1 0
0.128999 0.123263 0.123263 1 1 0
0.129003 0.123267 0.123267 1 1 0
0.129007 0.123271 0.123271 1 1 0
0.129011 0.123275 0.123275 1 1 0
0.129015 0.123279 0.123279 1 1 0
0.129019 0.123283 0.123283 1 1 0
0.129023 0.123287 0.123287 1 1 0
0.129027 0.123291 0.123291 1 1 0
0.12903 0.123295 0.123295 1 1 0
0.129034 0.1233 0.1233 1 1 0
0.129038 0.123304 0.123304 1 1 0
0.129042 0.123308 0.123308 1 1 0
0.129046 0.123312 0.123312 1 1 0
0.12905 0.123316 0.123316 1 1 0
0.129054 0.12332 0.12332 1 1 0
0.129057 0.123324 0.123324 1 1 0
0.129061 0.123328 0.123328 1 1 0
0.129065 0.123332 0.123332 1 1 0
0.129069 0.123336 0.123336 1 1 0
0.129073 0.12334 0.12334 1 1 0
0.129077 0.123344 0.123344 1 1 0
0.129081 0.123348 0.123348 1 1 0
0.129084 0.123352 0.123352 1 1 0
0.129088 0.123356 0.123356 1 1 0
0.129092 0.12336 0.12336 1 1 0
0.129096 0.123364 0.123364 1 1 0
0.1291 0.123368 0.123368 1 1 0
0.129104 0.123372 0.123372 1 1 0
0.129108 0.123376 0.123376 1 1 0
0.129112 0.12338 0.12338 1 1 0
0.129115 0.123384 0.123384 1 1 0
0.129119 0.123388 0.123388 1 1 0
0.129123 0.123392 0.123392 1 1 0
0.129127 0.123396 0.123396 1 1 0
0.129131 0.1234 0.1234 1 1 0
0.129135 0.123404 0.123404 1 1 0
0.129139 0.123408 0.123408 1 1 0
0.129143 0.123412 0.123412 1 1 0
0.129146 0.123416 0.123416 1 1 0
0.12915 0.12342 0.12342 1 1 0
0.129154 0.123424 0.123424 1 1 0
0.129158 0.123428 0.123428 1 1 0
0.129162 0.123432 0.123432 1 1 0
0.129166 0.123436 0.123436 1 1 0
0.12917 0.12344 0.12344 1 1 0
0.129174 0.123444 0.123444 1 1 0
0.129177 0.123448 0.123448 1 1 0
0.129181 0.123452 0.123452 1 1 0
0.129185 0.123456 0.123456 1 1 0
0.129189 0.12346 0.12346 1 1 0
0.129193 0.123464 0.123464 1 1 0
0.129197 0.123468 0.123468 1 1 0
0.129201 0.123472 0.123472 1 1 0
0.129205 0.123476 0.123476 1 1 0
0.129208 0.12348 0.12348 1 1 0
0.129212 0.123484 0.123484 1 1 0
0.129216 0.123488 0.123488 1 1 0
0.12922 0.123492 0.123492 1 1 0
0.129224 0.123496 0.123496 1 1 0
0.129228 0.1235 0.1235 1 1 0
0.129232 0.123504 0.123504 1 1 0
0.129236 0.123508 0.123508 1 1 0
0.12924 0.123512 0.123512 1 1 0
0.129243 0.123516 0.123516 1 1 0
0.129247 0.12352 0.12352 1 1 0
0.129251 0.123524 0.123524 1 1 0
0.129255 0.123528 0.123528 1 1 0
0.129259 0.123532 0.123532 1 1 0
0.129263 0.123536 0.123536 1 1 0
0.129267 0.12354 0.12354 1 1 0
0.129271 0.123545 0.123545 1 1 0
0.129275 0.123549 0.123549 1 1 0
0.129278 0.123553 0.123553 1 1 0
0.129282 0.123557 0.123557 1 1 0
0.129286 0.123561 0.123561 1 1 0
0.12929 0.123565 0.123565 1 1 0
0.129294 0.123569 0.123569 1 1 0
0.129298 0.123573 0.123573 1 1 0
0.129302 0.123577 0.123577 1 1 0
0.129306 0.123581 0.123581 1 1 0
0.12931 0.123585 0.123585 1 1 0
0.129313 0.123589 0.123589 1 1 0
0.129317 0.123593 0.123593 1 1 0
0.129321 0.123597 0.123597 1 1 0
0.129325 0.123601 0.123601 1 1 0
0.129329 0.123605 0.123605 1 1 0
0.129333 0.123609 0.123609 1 1 0
0.129337 0.123613 0.123613 1 1 0
0.129341 0.123617 0.123617 1 1 0
0.129345 0.123621 0.123621 1 1 0
0.129349 0.123625 0.123625 1 1 0
0.129352 0.123629 0.123629 1 1 0
0.129356 0.123633 0.123633 1 1 0
0.12936 0.123637 0.123637 1 1 0
0.129364 0.123641 0.123641 1 1 0
0.129368 0.123645 0.123645 1 1 0
0.129372 0.123649 0.123649 1 1 0
0.129376 0.123653 0.123653 1 1 0
0.12938 0.123657 0.123657 1 1 0
0.129384 0.123661 0.123661 1 1 0
0.129388 0.123665 0.123665 1 1 0
0.129391 0.123669 0.123669 1 1 0
0.129395 0.123673 0.123673 1 1 0
0.129399 0.123677 0.123677 1 1 0
0.129403 0.123681 0.123681 1 1 0
0.129407 0.123685 0.123685 1 1 0
0.129411 0.123689 0.123689 1 1 0
0.129415 0.123693 0.123693 1 1 0
0.129419 0.123697 0.123697 1 1 0
0.129423 0.123701 0.123701 1 1 0
0.129427 0.123705 0.123705 1 1 0
0.129431 0.123709 0.123709 1 1 0
0.129434 0.123713 0.123713 1 1 0
0.129438 0.123717 0.123717 1 1 0
0.129442 0.123721 0.123721 1 1 0
0.129446 0.123725 0.123725 1 1 0
0.12945 0.123729 0.123729 1 1 0
0.129454 0.123733 0.123733 1 1 0
0.129458 0.123737 0.123737 1 1 0
0.129462 0.123741 0.123741 1 1 0
0.129466 0.123745 0.123745 1 1 0
0.12947 0.123749 0.123749 1 1 0
0.129474 0.123753 0.123753 1 1 0
0.129477 0.123757 0.123757 1 1 0
0.129481 0.123761 0.123761 1 1 0
0.129485 0.123765 0.123765 1 1 0
0.129489 0.123769 0.123769 1 1 0
0.129493 0.123773 0.123773 1 1 0
0.129497 0.123777 0.123777 1 1 0
0.129501 0.123781 0.123781 1 1 0
0.129505 0.123785 0.123785 1 1 0
0.129509 0.123789 0.123789 1 1 0
0.129513 0.123793 0.123793 1 1 0
0.129517 0.123797 0.123797 1 1 0
0.129521 0.123801 0.123801 1 1 0
0.129524 0.123805 0.123805 1 1 0
0.129528 0.12381 0.12381 1 1 0
0.129532 0.123814 0.123814 1 1 0
0.129536 0.123818 0.123818 1 1 0
0.12954 0.123822 0.123822 1 1 0
0.129544 0.123826 0.123826 1 1 0
0.129548 0.12383 0.12383 1 1 0
0.129552 0.123834 0.123834 1 1 0
0.129556 0.123838 0.123838 1 1 0
0.12956 0.123842 0.123842 1 1 0
0.129564 0.123846 0.123846 1 1 0
0.129568 0.12385 0.12385 1 1 0
0.129572 0.123854 0.123854 1 1 0
0.129575 0.123858 0.123858 1 1 0
0.129579 0.123862 0.123862 1 1 0
0.129583 0.123866 0.123866 1 1 0
0.129587 0.12387 0.12387 1 1 0
0.129591 0.123874 0.123874 1 1 0
0.129595 0.123878 0.123878 1 1 0
0.129599 0.123882 0.123882 1 1 0
0.129603 0.123886 0.123886 1 1 0
0.129607 0.12389 0.12389 1 1 0
0.129611 0.123894 0.123894 1 1 0
0.129615 0.123898 0.123898 1 1 0
0.129619 0.123902 0.123902 1 1 0
0.129623 0.123906 0.123906 1 1 0
0.129627 0.12391 0.12391 1 1 0
0.12963 0.123914 0.123914 1 1 0
0.129634 0.123918 0.123918 1 1 0
0.129638 0.123922 0.123922 1 1 0
0.129642 0.123926 0.123926 1 1 0
0.129646 0.12393 0.12393 1 1 0
0.12965 0.123934 0.123934 1 1 0
0.129654 0.123938 0.123938 1 1 0
0.129658 0.123942 0.123942 1 1 0
0.129662 0.123946 0.123946 1 1 0
0.129666 0.12395 0.12395 1 1 0
0.12967 0.123954 0.123954 1 1 0
0.129674 0.123958 0.123958 1 1 0
0.129678 0.123962 0.123962 1 1 0
0.129682 0.123966 0.123966 1 1 0
0.129686 0.12397 0.12397 1 1 0
0.12969 0.123974 0.123974 1 1 0
0.129693 0.123978 0.123978 1 1 0
0.129697 0.123982 0.123982 1 1 0
0.129701 0.123986 0.123986 1 1 0
0.129705 0.12399 0.12399 1 1 0
0.129709 0.123994 0.123994 1 1 0
0.129713 0.123998 0.123998 1 1 0
0.129717 0.124002 0.124002 1 1 0
0.129721 0.124006 0.124006 1 1 0
0.129725 0.12401 0.12401 1 1 0
0.129729 0.124014 0.124014 1 1 0
0.129733 0.124018 0.124018 1 1 0
0.129737 0.124022 0.124022 1 1 0
0.129741 0.124026 0.124026 1 1 0
0.129745 0.12403 0.12403 1 1 0
0.129749 0.124034 0.124034 1 1 0
0.129753 0.124038 0.124038 1 1 0
0.129757 0.124042 0.124042 1 1 0
0.129761 0.124046 0.124046 1 1 0
0.129764 0.12405 0.12405 1 1 0
0.129768 0.124054 0.124054 1 1 0
0.129772 0.124058 0.124058 1 1 0
0.129776 0.124062 0.124062 1 1 0
0.12978 0.124066 0.124066 1 1 0
0.129784 0.12407 0.12407 1 1 0
0.129788 0.124074 0.124074 1 1 0
0.129792 0.124078 0.124078 1 1 0
0.129796 0.124082 0.124082 1 1 0
0.1298 0.124086 0.124086 1 1 0
0.129804 0.12409 0.12409 1 1 0
0.129808 0.124094 0.124094 1 1 0
0.129812 0.124099 0.124099 1 1 0
0.129816 0.124103 0.124103 1 1 0
0.12982 0.124107 0.124107 1 1 0
0.129824 0.124111 0.124111 1 1 0
0.129828 0.124115 0.124115 1 1 0
0.129832 0.124119 0.124119 1 1 0
0.129836 0.124123 0.124123 1 1 0
0.12984 0.124127 0.124127 1 1 0
0.129844 0.124131 0.124131 1 1 0
0.129848 0.124135 0.124135 1 1 0
0.129851 0.124139 0.124139 1 1 0
0.129855 0.124143 0.124143 1 1 0
0.129859 0.124147 0.124147 1 1 0
0.129863 0.124151 0.124151 1 1 0
0.129867 0.124155 0.124155 1 1 0
0.129871 0.124159 0.124159 1 1 0
0.129875 0.124163 0.124163 1 1 0
0.129879 0.124167 0.124167 1 1 0
0.129883 0.124171 0.124171 1 1 0
0.129887 0.124175 0.124175 1 1 0
0.129891 0.124179 0.124179 1 1 0
0.129895 0.124183 0.124183 1 1 0
0.129899 0.124187 0.124187 1 1 0
0.129903 0.124191 0.124191 1 1 0
0.129907 0.124195 0.124195 1 1 0
0.129911 0.124199 0.124199 1 1 0
0.129915 0.124203 0.124203 1 1 0
0.129919 0.124207 0.124207 1 1 0
0.129923 0.124211 0.124211 1 1 0
0.129927 0.124215 0.124215 1 1 0
0.129931 0.124219 0.124219 1 1 0
0.129935 0.124223 0.124223 1 1 0
0.129939 0.124227 0.124227 1 1 0
0.129943 0.124231 0.124231 1 1 0
0.129947 0.124235 0.124235 1 1 0
0.129951 0.124239 0.124239 1 1 0
0.129955 0.124243 0.124243 1 1 0
0.129959 0.124247 0.124247 1 1 0
0.129963 0.124251 0.124251 1 1 0
0.129967 0.124255 0.124255 1 1 0
0.12997 0.124259 0.124259 1 1 0
0.129974 0.124263 0.124263 1 1 0
0.129978 0.124267 0.124267 1 1 0
0.129982 0.124271 0.124271 1 1 0
0.129986 0.124275 0.124275 1 1 0
0.12999 0.124279 0.124279 1 1 0
0.129994 0.124283 0.124283 1 1 0
0.129998 0.124287 0.124287 1 1 0
0.130002 0.124291 0.124291 1 1 0
0.130006 0.124295 0.124295 1 1 0
0.13001 0.124299 0.124299 1 1 0
0.130014 0.124303 0.124303 1 1 0
0.130018 0.124307 0.124307 1 1 0
0.130022 0.124311 0.124311 1 1 0
0.130026 0.124315 0.124315 1 1 0
0.13003 0.124319 0.124319 1 1 0
0.130034 0.124323 0.124323 1 1 0
0.130038 0.124327 0.124327 1 1 0
0.130042 0.124331 0.124331 1 1 0
0.130046 0.124335 0.124335 1 1 0
0.13005 0.124339 0.124339 1 1 0
0.130054 0.124343 0.124343 1 1 0
0.130058 0.124347 0.124347 1 1 0
0.130062 0.124351 0.124351 1 1 0
0.130066 0.124355 0.124355 1 1 0
0.13007 0.124359 0.124359 1 1 0
0.130074 0.124363 0.124363 1 1 0
0.130078 0.124367 0.124367 1 1 0
0.130082 0.124371 0.124371 1 1 0
0.130086 0.124375 0.124375 1 1 0
0.13009 0.124379 0.124379 1 1 0
0.130094 0.124383 0.124383 1 1 0
0.130098 0.124387 0.124387 1 1 0
0.130102 0.124391 0.124391 1 1 0
0.130106 0.124395 0.124395 1 1 0
0.13011 0.124399 0.124399 1 1 0
0.130114 0.124403 0.124403 1 1 0
0.130118 0.124407 0.124407 1 1 0
0.130122 0.124411 0.124411 1 1 0
0.130126 0.124415 0.124415 1 1 0
0.13013 0.124419 0.124419 1 1 0
0.130134 0.124423 0.124423 1 1 0
0.130138 0.124428 0.124428 1 1 0
0.130142 0.124432 0.124432 1 1 0
0.130146 0.124436 0.124436 1 1 0
0.13015 0.12444 0.12444 1 1 0
0.130154 0.124444 0.124444 1 1 0
0.130158 0.124448 0.124448 1 1 0
0.130162 0.124452 0.124452 1 1 0
0.130166 0.124456 0.124456 1 1 0
0.13017 0.12446 0.12446 1 1 0
0.130174 0.124464 0.124464 1 1 0
0.130178 0.124468 0.124468 1 1 0
0.130182 0.124472 0.124472 1 1 0
0.130186 0.124476 0.124476 1 1 0
0.13019 0.12448 0.12448 1 1 0
0.130194 0.124484 0.124484 1 1 0
0.130198 0.124488 0.124488 1 1 0
0.130202 0.124492 0.124492 1 1 0
0.130206 0.124496 0.124496 1 1 0
0.13021 0.1245 0.1245 1 1 0
0.130214 0.124504 0.124504 1 1 0
0.130218 0.124508 0.124508 1 1 0
0.130222 0.124512 0.124512 1 1 0
0.130226 0.124516 0.124516 1 1 0
0.13023 0.12452 0.12452 1 1 0
0.130234 0.124524 0.124524 1 1 0
0.130238 0.124528 0.124528 1 1 0
0.130242 0.124532 0.124532 1 1 0
0.130246 0.124536 0.124536 1 1 0
0.13025 0.12454 0.12454 1 1 0
0.130254 0.124544 0.124544 1 1 0
0.130258 0.124548 0.124548 1 1 0
0.130262 0.124552 0.124552 1 1 0
0.130266 0.124556 0.124556 1 1 0
0.13027 0.12456 0.12456 1 1 0
0.130274 0.124564 0.124564 1 1 0
0.130278 0.124568 0.124568 1 1 0
0.130282 0.124572 0.124572 1 1 0
0.130286 0.124576 0.124576 1 1 0
0.13029 0.12458 0.12458 1 1 0
0.130294 0.124584 0.124584 1 1 0
0.130298 0.124588 0.124588 1 1 0
0.130302 0.124592 0.124592 1 1 0
0.130306 0.124596 0.124596 1 1 0
0.13031 0.1246 0.1246 1 1 0
0.130314 0.124604 0.124604 1 1 0
0.130318 0.124608 0.124608 1 1 0
0.130322 0.124612 0.124612 1 1 0
0.130326 0.124616 0.124616 1 1 0
0.13033 0.12462 0.12462 1 1 0
0.130334 0.124624 0.124624 1 1 0
0.130338 0.124628 0.124628 1 1 0
0.130342 0.124632 0.124632 1 1 0
0.130346 0.124636 0.124636 1 1 0
0.13035 0.12464 0.12464 1 1 0
0.130354 0.124644 0.124644 1 1 0
0.130358 0.124648 0.124648 1 1 0
0.130362 0.124652 0.124652 1 1 0
0.130366 0.124656 0.124656 1 1 0
0.13037 0.12466 0.12466 1 1 0
0.130374 0.124664 0.124664 1 1 0
0.130378 0.124668 0.124668 1 1 0
0.130383 0.124672 0.124672 1 1 0
0.130387 0.124676 0.124676 1 1 0
0.130391 0.12468 0.12468 1 1 0
0.130395 0.124684 0.124684 1 1 0
0.130399 0.124688 0.124688 1 1 0
0.130403 0.124692 0.124692 1 1 0
0.130407 0.124696 0.124696 1 1 0
0.130411 0.1247 0.1247 1 1 0
0.130415 0.124704 0.124704 1 1 0
0.130419 0.124708 0.124708 1 1 0
0.130423 0.124712 0.124712 1 1 0
0.130427 0.124716 0.124716 1 1 0
0.130431 0.12472 0.12472 1 1 0
0.130435 0.124724 0.124724 1 1 0
0.130439 0.124728 0.124728 1 1 0
0.130443 0.124732 0.124732 1 1 0
0.130447 0.124736 0.124736 1 1 0
0.130451 0.12474 0.12474 1 1 0
0.130455 0.124744 0.124744 1 1 0
0.130459 0.124748 0.124748 1 1 0
0.130463 0.124752 0.124752 1 1 0
0.130467 0.124756 0.124756 1 1 0
0.130471 0.12476 0.12476 1 1 0
0.130475 0.124764 0.124764 1 1 0
0.130479 0.124768 0.124768 1 1 0
0.130483 0.124772 0.124772 1 1 0
0.130487 0.124776 0.124776 1 1 0
0.130491 0.12478 0.12478 1 1 0
0.130495 0.124784 0.124784 1 1 0
0.130499 0.124788 0.124788 1 1 0
0.130504 0.124792 0.124792 1 1 0
0.130508 0.124796 0.124796 1 1 0
0.130512 0.1248 0.1248 1 1 0
0.130516 0.124804 0.124804 1 1 0
0.13052 0.124808 0.124808 1 1 0
0.130524 0.124812 0.124812 1 1 0
0.130528 0.124816 0.124816 1 1 0
0.130532 0.12482 0.12482 1 1 0
0.130536 0.124825 0.124825 1 1 0
0.13054 0.124829 0.124829 1 1 0
0.130544 0.124833 0.124833 1 1 0
0.130548 0.124837 0.124837 1 1 0
0.130552 0.124841 0.124841 1 1 0
0.130556 0.124845 0.124845 1 1 0
0.13056 0.124849 0.124849 1 1 0
0.130564 0.124853 0.124853 1 1 0
0.130568 0.124857 0.124857 1 1 0
0.130572 0.124861 0.124861 1 1 0
0.130576 0.124865 0.124865 1 1 0
0.13058 0.124869 0.124869 1 1 0
0.130584 0.124873 0.124873 1 1 0
0.130588 0.124877 0.124877 1 1 0
0.130593 0.124881 0.124881 1 1 0
0.130597 0.124885 0.124885 1 1 0
0.130601 0.124889 0.124889 1 1 0
0.130605 0.124893 0.124893 1 1 0
0.130609 0.124897 0.124897 1 1 0
0.130613 0.124901 0.124901 1 1 0
0.130617 0.124905 0.124905 1 1 0
0.130621 0.124909 0.124909 1 1 0
0.130625 0.124913 0.124913 1 1 0
0.130629 0.124917 0.124917 1 1 0
0.130633 0.124921 0.124921 1 1 0
0.130637 0.124925 0.124925 1 1 0
0.130641 0.124929 0.124929 1 1 0
0.130645 0.124933 0.124933 1 1 0
0.130649 0.124937 0.124937 1 1 0
0.130653 0.124941 0.124941 1 1 0
0.130657 0.124945 0.124945 1 1 0
0.130662 0.124949 0.124949 1 1 0
0.130666 0.124953 0.124953 1 1 0
0.13067 0.124957 0.124957 1 1 0
0.130674 0.124961 0.124961 1 1 0
0.130678 0.124965 0.124965 1 1 0
0.130682 0.124969 0.124969 1 1 0
0.130686 0.124973 0.124973 1 1 0
0.13069 0.124977 0.124977 1 1 0
0.130694 0.124981 0.124981 1 1 0
0.130698 0.124985 0.124985 1 1 0
0.130702 0.124989 0.124989 1 1 0
0.130706 0.124993 0.124993 1 1 0
0.13071 0.124997 0.124997 1 1 0
0.130714 0.125001 0.125001 1 1 0
0.130718 0.125005 0.125005 1 1 0
0.130722 0.125009 0.125009 1 1 0
0.130727 0.125013 0.125013 1 1 0
0.130731 0.125017 0.125017 1 1 0
0.130735 0.125021 0.125021 1 1 0
0.130739 0.125025 0.125025 1 1 0
0.130743 0.125029 0.125029 1 1 0
0.130747 0.125033 0.125033 1 1 0
0.130751 0.125037 0.125037 1 1 0
0.130755 0.125041 0.125041 1 1 0
0.130759 0.125045 0.125045 1 1 0
0.130763 0.125049 0.125049 1 1 0
0.130767 0.125053 0.125053 1 1 0
0.130771 0.125057 0.125057 1 1 0
0.130775 0.125061 0.125061 1 1 0
0.13078 0.125065 0.125065 1 1 0
0.130784 0.125069 0.125069 1 1 0
0.130788 0.125073 0.125073 1 1 0
0.130792 0.125077 0.125077 1 1 0
0.130796 0.125081 0.125081 1 1 0
0.1308 0.125085 0.125085 1 1 0
0.130804 0.125089 0.125089 1 1 0
0.130808 0.125093 0.125093 1 1 0
0.130812 0.125097 0.125097 1 1 0
0.130816 0.125101 0.125101 1 1 0
0.13082 0.125105 0.125105 1 1 0
0.130824 0.125109 0.125109 1 1 0
0.130828 0.125113 0.125113 1 1 0
0.130833 0.125117 0.125117 1 1 0
0.130837 0.125121 0.125121 1 1 0
0.130841 0.125125 0.125125 1 1 0
0.130845 0.125129 0.125129 1 1 0
0.130849 0.125133 0.125133 1 1 0
0.130853 0.125137 0.125137 1 1 0
0.130857 0.125141 0.125141 1 1 0
0.130861 0.125145 0.125145 1 1 0
0.130865 0.125149 0.125149 1 1 0
0.130869 0.125153 0.125153 1 1 0
0.130873 0.125157 0.125157 1 1 0
0.130877 0.125161 0.125161 1 1 0
0.130882 0.125165 0.125165 1 1 0
0.130886 0.125169 0.125169 1 1 0
0.13089 0.125173 0.125173 1 1 0
0.130894 0.125177 0.125177 1 1 0
0.130898 0.125181 0.125181 1 1 0
0.130902 0.125185 0.125185 1 1 0
0.130906 0.125189 0.125189 1 1 0
0.13091 0.125193 0.125193 1 1 0
0.130914 0.125197 0.125197 1 1 0
0.130918 0.125201 0.125201 1 1 0
0.130922 0.125205 0.125205 1 1 0
0.130927 0.125209 0.125209 1 1 0
0.130931 0.125213 0.125213 1 1 0
0.130935 0.125217 0.125217 1 1 0
0.130939 0.125221 0.125221 1 1 0
0.130943 0.125225 0.125225 1 1 0
0.130947 0.125229 0.125229 1 1 0
0.130951 0.125233 0.125233 1 1 0
0.130955 0.125237 0.125237 1 1 0
0.130959 0.125241 0.125241 1 1 0
0.130963 0.125245 0.125245 1 1 0
0.130968 0.125249 0.125249 1 1 0
0.130972 0.125253 0.125253 1 1 0
0.130976 0.125257 0.125257 1 1 0
0.13098 0.125261 0.125261 1 1 0
0.130984 0.125265 0.125265 1 1 0
0.130988 0.125269 0.125269 1 1 0
0.130992 0.125273 0.125273 1 1 0
0.130996 0.125277 0.125277 1 1 0
0.131 0.125281 0.125281 1 1 0
0.131004 0.125285 0.125285 1 1 0
0.131009 0.125289 0.125289 1 1 0
0.131013 0.125293 0.125293 1 1 0
0.131017 0.125297 0.125297 1 1 0
0.131021 0.125301 0.125301 1 1 0
0.131025 0.125305 0.125305 1 1 0
0.131029 0.125309 0.125309 1 1 0
0.131033 0.125313 0.125313 1 1 0
0.131037 0.125317 0.125317 1 1 0
0.131041 0.125321 0.125321 1 1 0
0.131046 0.125325 0.125325 1 1 0
0.13105 0.125329 0.125329 1 1 0
0.131054 0.125333 0.125333 1 1 0
0.131058 0.125337 0.125337 1 1 0
0.131062 0.125341 0.125341 1 1 0
0.131066 0.125345 0.125345 1 1 0
0.13107 0.125349 0.125349 1 1 0
0.131074 0.125353 0.125353 1 1 0
0.131078 0.125357 0.125357 1 1 0
0.131083 0.125361 0.125361 1 1 0
0.131087 0.125365 0.125365 1 1 0
0.131091 0.125369 0.125369 1 1 0
0.131095 0.125373 0.125373 1 1 0
0.131099 0.125377 0.125377 1 1 0
0.131103 0.125381 0.125381 1 1 0
0.131107 0.125385 0.125385 1 1 0
0.131111 0.125389 0.125389 1 1 0
0.131116 0.125393 0.125393 1 1 0
0.13112 0.125397 0.125397 1 1 0
0.131124 0.125401 0.125401 1 1 0
0.131128 0.125405 0.125405 1 1 0
0.131132 0.125409 0.125409 1 1 0
0.131136 0.125414 0.125414 1 1 0
0.13114 0.125418 0.125418 1 1 0
0.131144 0.125422 0.125422 1 1 0
0.131148 0.125426 0.125426 1 1 0
0.131153 0.12543 0.12543 1 1 0
0.131157 0.125434 0.125434 1 1 0
0.131161 0.125438 0.125438 1 1 0
0.131165 0.125442 0.125442 1 1 0
0.131169 0.125446 0.125446 1 1 0
0.131173 0.12545 0.12545 1 1 0
0.131177 0.125454 0.125454 1 1 0
0.131181 0.125458 0.125458 1 1 0
0.131186 0.125462 0.125462 1 1 0
0.13119 0.125466 0.125466 1 1 0
0.131194 0.12547 0.12547 1 1 0
0.131198 0.125474 0.125474 1 1 0
0.131202 0.125478 0.125478 1 1 0
0.131206 0.125482 0.125482 1 1 0
0.13121 0.125486 0.125486 1 1 0
0.131215 0.12549 0.12549 1 1 0
0.131219 0.125494 0.125494 1 1 0
0.131223 0.125498 0.125498 1 1 0
0.131227 0.125502 0.125502 1 1 0
0.131231 0.125506 0.125506 1 1 0
0.131235 0.12551 0.12551 1 1 0
0.131239 0.125514 0.125514 1 1 0
0.131243 0.125518 0.125518 1 1 0
0.131248 0.125522 0.125522 1 1 0
0.131252 0.125526 0.125526 1 1 0
0.131256 0.12553 0.12553 1 1 0
0.13126 0.125534 0.125534 1 1 0
0.131264 0.125538 0.125538 1 1 0
0.131268 0.125542 0.125542 1 1 0
0.131272 0.125546 0.125546 1 1 0
0.131277 0.12555 0.12555 1 1 0
0.131281 0.125554 0.125554 1 1 0
0.131285 0.125558 0.125558 1 1 0
0.131289 0.125562 0.125562 1 1 0
0.131293 0.125566 0.125566 1 1 0
0.131297 0.12557 0.12557 1 1 0
0.131301 0.125574 0.125574 1 1 0
0.131306 0.125578 0.125578 1 1 0
0.13131 0.125582 0.125582 1 1 0
0.131314 0.125586 0.125586 1 1 0
0.131318 0.12559 0.12559 1 1 0
0.131322 0.125594 0.125594 1 1 0
0.131326 0.125598 0.125598 1 1 0
0.13133 0.125602 0.125602 1 1 0
0.131335 0.125606 0.125606 1 1 0
0.131339 0.12561 0.12561 1 1 0
0.131343 0.125614 0.125614 1 1 0
0.131347 0.125618 0.125618 1 1 0
0.131351 0.125622 0.125622 1 1 0
0.131355 0.125626 0.125626 1 1 0
0.131359 0.12563 0.12563 1 1 0
0.131364 0.125634 0.125634 1 1 0
0.131368 0.125638 0.125638 1 1 0
0.131372 0.125642 0.125642 1 1 0
0.131376 0.125646 0.125646 1 1 0
0.13138 0.12565 0.12565 1 1 0
0.131384 0.125654 0.125654 1 1 0
0.131389 0.125658 0.125658 1 1 0
0.131393 0.125662 0.125662 1 1 0
0.131397 0.125666 0.125666 1 1 0
0.131401 0.12567 0.12567 1 1 0
0.131405 0.125674 0.125674 1 1 0
0.131409 0.125678 0.125678 1 1 0
0.131414 0.125682 0.125682 1 1 0
0.131418 0.125686 0.125686 1 1 0
0.131422 0.12569 0.12569 1 1 0
0.131426 0.125694 0.125694 1 1 0
0.13143 0.125698 0.125698 1 1 0
0.131434 0.125702 0.125702 1 1 0
0.131438 0.125706 0.125706 1 1 0
0.131443 0.12571 0.12571 1 1 0
0.131447 0.125714 0.125714 1 1 0
0.131451 0.125718 0.125718 1 1 0
0.131455 0.125722 0.125722 1 1 0
0.131459 0.125726 0.125726 1 1 0
0.131463 0.12573 0.12573 1 1 0
0.131468 0.125734 0.125734 1 1 0
0.131472 0.125738 0.125738 1 1 0
0.131476 0.125742 0.125742 1 1 0
0.13148 0.125746 0.125746 1 1 0
0.131484 0.12575 0.12575 1 1 0
0.131488 0.125754 0.125754 1 1 0
0.131493 0.125758 0.125758 1 1 0
0.131497 0.125762 0.125762 1 1 0
0.131501 0.125766 0.125766 1 1 0
0.131505 0.12577 0.12577 1 1 0
0.131509 0.125774 0.125774 1 1 0
0.131513 0.125778 0.125778 1 1 0
0.131518 0.125782 0.125782 1 1 0
0.131522 0.125786 0.125786 1 1 0
0.131526 0.12579 0.12579 1 1 0
0.13153 0.125794 0.125794 1 1 0
0.131534 0.125798 0.125798 1 1 0
0.131539 0.125802 0.125802 1 1 0
0.131543 0.125806 0.125806 1 1 0
0.131547 0.12581 0.12581 1 1 0
0.131551 0.125814 0.125814 1 1 0
0.131555 0.125818 0.125818 1 1 0
0.131559 0.125822 0.125822 1 1 0
0.131564 0.125826 0.125826 1 1 0
0.131568 0.12583 0.12583 1 1 0
0.131572 0.125834 0.125834 1 1 0
0.131576 0.125838 0.125838 1 1 0
0.13158 0.125842 0.125842 1 1 0
0.131584 0.125846 0.125846 1 1 0
0.131589 0.12585 0.12585 1 1 0
0.131593 0.125854 0.125854 1 1 0
0.131597 0.125858 0.125858 1 1 0
0.131601 0.125862 0.125862 1 1 0
0.131605 0.125866 0.125866 1 1 0
0.13161 0.12587 0.12587 1 1 0
0.131614 0.125874 0.125874 1 1 0
0.131618 0.125878 0.125878 1 1 0
0.131622 0.125882 0.125882 1 1 0
0.131626 0.125886 0.125886 1 1 0
0.13163 0.12589 0.12589 1 1 0
0.131635 0.125894 0.125894 1 1 0
0.131639 0.125898 0.125898 1 1 0
0.131643 0.125902 0.125902 1 1 0
0.131647 0.125906 0.125906 1 1 0
0.131651 0.12591 0.12591 1 1 0
0.131656 0.125914 0.125914 1 1 0
0.13166 0.125918 0.125918 1 1 0
0.131664 0.125922 0.125922 1 1 0
0.131668 0.125926 0.125926 1 1 0
0.131672 0.12593 0.12593 1 1 0
0.131677 0.125934 0.125934 1 1 0
0.131681 0.125938 0.125938 1 1 0
0.131685 0.125942 0.125942 1 1 0
0.131689 0.125946 0.125946 1 1 0
0.131693 0.12595 0.12595 1 1 0
0.131698 0.125954 0.125954 1 1 0
0.131702 0.125958 0.125958 1 1 0
0.131706 0.125962 0.125962 1 1 0
0.13171 0.125966 0.125966 1 1 0
0.131714 0.12597 0.12597 1 1 0
0.131719 0.125974 0.125974 1 1 0
0.131723 0.125978 0.125978 1 1 0
0.131727 0.125982 0.125982 1 1 0
0.131731 0.125986 0.125986 1 1 0
0.131735 0.12599 0.12599 1 1 0
0.13174 0.125994 0.125994 1 1 0
0.131744 0.125998 0.125998 1 1 0
0.131748 0.126002 0.126002 1 1 0
0.131752 0.126006 0.126006 1 1 0
0.131756 0.12601 0.12601 1 1 0
0.131761 0.126014 0.126014 1 1 0
0.131765 0.126018 0.126018 1 1 0
0.131769 0.126022 0.126022 1 1 0
0.131773 0.126026 0.126026 1 1 0
0.131777 0.12603 0.12603 1 1 0
0.131782 0.126034 0.126034 1 1 0
0.131786 0.126038 0.126038 1 1 0
0.13179 0.126042 0.126042 1 1 0
0.131794 0.126046 0.126046 1 1 0
0.131798 0.12605 0.12605 1 1 0
0.131803 0.126054 0.126054 1 1 0
0.131807 0.126058 0.126058 1 1 0
0.131811 0.126062 0.126062 1 1 0
0.131815 0.126066 0.126066 1 1 0
0.131819 0.12607 0.12607 1 1 0
0.131824 0.126074 0.126074 1 1 0
0.131828 0.126078 0.126078 1 1 0
0.131832 0.126082 0.126082 1 1 0
0.131836 0.126086 0.126086 1 1 0
0.131841 0.12609 0.12609 1 1 0
0.131845 0.126094 0.126094 1 1 0
0.131849 0.126098 0.126098 1 1 0
0.131853 0.126102 0.126102 1 1 0
0.131857 0.126106 0.126106 1 1 0
0.131862 0.12611 0.12611 1 1 0
0.131866 0.126114 0.126114 1 1 0
0.13187 0.126118 0.126118 1 1 0
0.131874 0.126122 0.126122 1 1 0
0.131878 0.126126 0.126126 1 1 0
0.131883 0.12613 0.12613 1 1 0
0.131887 0.126134 0.126134 1 1 0
0.131891 0.126138 0.126138 1 1 0
0.131895 0.126142 0.126142 1 1 0
0.1319 0.126146 0.126146 1 1 0
0.131904 0.12615 0.12615 1 1 0
0.131908 0.126154 0.126154 1 1 0
0.131912 0.126158 0.126158 1 1 0
0.131916 0.126162 0.126162 1 1 0
0.131921 0.126166 0.126166 1 1 0
0.131925 0.12617 0.12617 1 1 0
0.131929 0.126174 0.126174 1 1 0
0.131933 0.126178 0.126178 1 1 0
0.131938 0.126182 0.126182 1 1 0
0.131942 0.126186 0.126186 1 1 0
0.131946 0.12619 0.12619 1 1 0
0.13195 0.126194 0.126194 1 1 0
0.131955 0.126198 0.126198 1 1 0
0.131959 0.126202 0.126202 1 1 0
0.131963 0.126206 0.126206 1 1 0
0.131967 0.12621 0.12621 1 1 0
0.131971 0.126214 0.126214 1 1 0
0.131976 0.126218 0.126218 1 1 0
0.13198 0.126222 0.126222 1 1 0
0.131984 0.126226 0.126226 1 1 0
0.131988 0.12623 0.12623 1 1 0
0.131993 0.126234 0.126234 1 1 0
0.131997 0.126238 0.126238 1 1 0
0.132001 0.126242 0.126242 1 1 0
0.132005 0.126246 0.126246 1 1 0
0.13201 0.12625 0.12625 1 1 0
0.132014 0.126254 0.126254 1 1 0
0.132018 0.126258 0.126258 1 1 0
0.132022 0.126262 0.126262 1 1 0
0.132027 0.126266 0.126266 1 1 0
0.132031 0.12627 0.12627 1 1 0
0.132035 0.126274 0.126274 1 1 0
0.132039 0.126278 0.126278 1 1 0
0.132043 0.126282 0.126282 1 1 0
0.132048 0.126286 0.126286 1 1 0
0.132052 0.12629 0.12629 1 1 0
0.132056 0.126294 0.126294 1 1 0
0.13206 0.126298 0.126298 1 1 0
0.132065 0.126302 0.126302 1 1 0
0.132069 0.126306 0.126306 1 1 0
0.132073 0.12631 0.12631 1 1 0
0.132077 0.126314 0.126314 1 1 0
0.132082 0.126318 0.126318 1 1 0
0.132086 0.126322 0.126322 1 1 0
0.13209 0.126326 0.126326 1 1 0
0.132094 0.12633 0.12633 1 1 0
0.132099 0.126334 0.126334 1 1 0
0.132103 0.126338 0.126338 1 1 0
0.132107 0.126342 0.126342 1 1 0
0.132111 0.126346 0.126346 1 1 0
0.132116 0.12635 0.12635 1 1 0
0.13212 0.126354 0.126354 1 1 0
0.132124 0.126358 0.126358 1 1 0
0.132128 0.126362 0.126362 1 1 0
0.132133 0.126366 0.126366 1 1 0
0.132137 0.12637 0.12637 1 1 0
0.132141 0.126374 0.126374 1 1 0
0.132145 0.126378 0.126378 1 1 0
0.13215 0.126382 0.126382 1 1 0
0.132154 0.126386 0.126386 1 1 0
0.132158 0.12639 0.12639 1 1 0
0.132162 0.126394 0.126394 1 1 0
0.132167 0.126398 0.126398 1 1 0
0.132171 0.126402 0.126402 1 1 0
0.132175 0.126406 0.126406 1 1 0
0.13218 0.12641 0.12641 1 1 0
0.132184 0.126414 0.126414 1 1 0
0.132188 0.126418 0.126418 1 1 0
0.132192 0.126422 0.126422 1 1 0
0.132197 0.126426 0.126426 1 1 0
0.132201 0.12643 0.12643 1 1 0
0.132205 0.126434 0.126434 1 1 0
0.132209 0.126438 0.126438 1 1 0
0.132214 0.126442 0.126442 1 1 0
0.132218 0.126446 0.126446 1 1 0
0.132222 0.12645 0.12645 1 1 0
0.132226 0.126454 0.126454 1 1 0
0.132231 0.126458 0.126458 1 1 0
0.132235 0.126462 0.126462 1 1 0
0.132239 0.126466 0.126466 1 1 0
0.132244 0.12647 0.12647 1 1 0
0.132248 0.126474 0.126474 1 1 0
0.132252 0.126478 0.126478 1 1 0
0.132256 0.126482 0.126482 1 1 0
0.132261 0.126486 0.126486 1 1 0
0.132265 0.12649 0.12649 1 1 0
0.132269 0.126494 0.126494 1 1 0
0.132273 0.126498 0.126498 1 1 0
0.132278 0.126502 0.126502 1 1 0
0.132282 0.126506 0.126506 1 1 0
0.132286 0.12651 0.12651 1 1 0
0.132291 0.126513 0.126513 1 1 0
0.132295 0.126517 0.126517 1 1 0
0.132299 0.126521 0.126521 1 1 0
0.132303 0.126525 0.126525 1 1 0
0.132308 0.126529 0.126529 1 1 0
0.132312 0.126533 0.126533 1 1 0
0.132316 0.126537 0.126537 1 1 0
0.13232 0.126541 0.126541 1 1 0
0.132325 0.126545 0.126545 1 1 0
0.132329 0.126549 0.126549 1 1 0
0.132333 0.126553 0.126553 1 1 0
0.132338 0.126557 0.126557 1 1 0
0.132342 0.126561 0.126561 1 1 0
0.132346 0.126565 0.126565 1 1 0
0.13235 0.126569 0.126569 1 1 0
0.132355 0.126573 0.126573 1 1 0
0.132359 0.126577 0.126577 1 1 0
0.132363 0.126581 0.126581 1 1 0
0.132368 0.126585 0.126585 1 1 0
0.132372 0.126589 0.126589 1 1 0
0.132376 0.126593 0.126593 1 1 0
0.13238 0.126597 0.126597 1 1 0
0.132385 0.126601 0.126601 1 1 0
0.132389 0.126605 0.126605 1 1 0
0.132393 0.126609 0.126609 1 1 0
0.132398 0.126613 0.126613 1 1 0
0.132402 0.126617 0.126617 1 1 0
0.132406 0.126621 0.126621 1 1 0
0.13241 0.126625 0.126625 1 1 0
0.132415 0.126629 0.126629 1 1 0
0.132419 0.126633 0.126633 1 1 0
0.132423 0.126637 0.126637 1 1 0
0.132428 0.126641 0.126641 1 1 0
0.132432 0.126645 0.126645 1 1 0
0.132436 0.126649 0.126649 1 1 0
0.132441 0.126653 0.126653 1 1 0
0.132445 0.126657 0.126657 1 1 0
0.132449 0.126661 0.126661 1 1 0
0.132453 0.126665 0.126665 1 1 0
0.132458 0.126669 0.126669 1 1 0
0.132462 0.126673 0.126673 1 1 0
0.132466 0.126677 0.126677 1 1 0
0.132471 0.126681 0.126681 1 1 0
0.132475 0.126685 0.126685 1 1 0
0.132479 0.126689 0.126689 1 1 0
0.132484 0.126693 0.126693 1 1 0
0.132488 0.126697 0.126697 1 1 0
0.132492 0.126701 0.126701 1 1 0
0.132496 0.126705 0.126705 1 1 0
0.132501 0.126709 0.126709 1 1 0
0.132505 0.126713 0.126713 1 1 0
0.132509 0.126717 0.126717 1 1 0
0.132514 0.126721 0.126721 1 1 0
0.132518 0.126725 0.126725 1 1 0
0.132522 0.126729 0.126729 1 1 0
0.132527 0.126733 0.126733 1 1 0
0.132531 0.126737 0.126737 1 1 0
0.132535 0.126741 0.126741 1 1 0
0.132539 0.126745 0.126745 1 1 0
0.132544 0.126749 0.126749 1 1 0
0.132548 0.126753 0.126753 1 1 0
0.132552 0.126757 0.126757 1 1 0
0.132557 0.126761 0.126761 1 1 0
0.132561 0.126765 0.126765 1 1 0
0.132565 0.126769 0.126769 1 1 0
0.13257 0.126773 0.126773 1 1 0
0.132574 0.126777 0.126777 1 1 0
0.132578 0.126781 0.126781 1 1 0
0.132583 0.126785 0.126785 1 1 0
0.132587 0.126789 0.126789 1 1 0
0.132591 0.126793 0.126793 1 1 0
0.132596 0.126797 0.126797 1 1 0
0.1326 0.126801 0.126801 1 1 0
0.132604 0.126805 0.126805 1 1 0
0.132609 0.126809 0.126809 1 1 0
0.132613 0.126813 0.126813 1 1 0
0.132617 0.126817 0.126817 1 1 0
0.132621 0.126821 0.126821 1 1 0
0.132626 0.126825 0.126825 1 1 0
0.13263 0.126829 0.126829 1 1 0
0.132634 0.126833 0.126833 1 1 0
0.132639 0.126837 0.126837 1 1 0
0.132643 0.126841 0.126841 1 1 0
0.132647 0.126845 0.126845 1 1 0
0.132652 0.126849 0.126849 1 1 0
0.132656 0.126853 0.126853 1 1 0
0.13266 0.126857 0.126857 1 1 0
0.132665 0.126861 0.126861 1 1 0
0.132669 0.126865 0.126865 1 1 0
0.132673 0.126869 0.126869 1 1 0
0.132678 0.126873 0.126873 1 1 0
0.132682 0.126877 0.126877 1 1 0
0.132686 0.126881 0.126881 1 1 0
0.132691 0.126885 0.126885 1 1 0
0.132695 0.126889 0.126889 1 1 0
0.132699 0.126893 0.126893 1 1 0
0.132704 0.126897 0.126897 1 1 0
0.132708 0.126901 0.126901 1 1 0
0.132712 0.126905 0.126905 1 1 0
0.132717 0.126909 0.126909 1 1 0
0.132721 0.126913 0.126913 1 1 0
0.132725 0.126917 0.126917 1 1 0
0.13273 0.126921 0.126921 1 1 0
0.132734 0.126925 0.126925 1 1 0
0.132738 0.126929 0.126929 1 1 0
0.132743 0.126933 0.126933 1 1 0
0.132747 0.126937 0.126937 1 1 0
0.132751 0.126941 0.126941 1 1 0
0.132756 0.126945 0.126945 1 1 0
0.13276 0.126949 0.126949 1 1 0
0.132764 0.126953 0.126953 1 1 0
0.132769 0.126957 0.126957 1 1 0
0.132773 0.126961 0.126961 1 1 0
0.132777 0.126965 0.126965 1 1 0
0.132782 0.126969 0.126969 1 1 0
0.132786 0.126973 0.126973 1 1 0
0.13279 0.126977 0.126977 1 1 0
0.132795 0.126981 0.126981 1 1 0
0.132799 0.126985 0.126985 1 1 0
0.132804 0.126989 0.126989 1 1 0
0.132808 0.126993 0.126993 1 1 0
0.132812 0.126997 0.126997 1 1 0
0.132817 0.127001 0.127001 1 1 0
0.132821 0.127005 0.127005 1 1 0
0.132825 0.127009 0.127009 1 1 0
0.13283 0.127013 0.127013 1 1 0
0.132834 0.127017 0.127017 1 1 0
0.132838 0.127021 0.127021 1 1 0
0.132843 0.127025 0.127025 1 1 0
0.132847 0.127028 0.127028 1 1 0
0.132851 0.127032 0.127032 1 1 0
0.132856 0.127036 0.127036 1 1 0
0.13286 0.12704 0.12704 1 1 0
0.132864 0.127044 0.127044 1 1 0
0.132869 0.127048 0.127048 1 1 0
0.132873 0.127052 0.127052 1 1 0
0.132877 0.127056 0.127056 1 1 0
0.132882 0.12706 0.12706 1 1 0
0.132886 0.127064 0.127064 1 1 0
0.132891 0.127068 0.127068 1 1 0
0.132895 0.127072 0.127072 1 1 0
0.132899 0.127076 0.127076 1 1 0
0.132904 0.12708 0.12708 1 1 0
0.132908 0.127084 0.127084 1 1 0
0.132912 0.127088 0.127088 1 1 0
0.132917 0.127092 0.127092 1 1 0
0.132921 0.127096 0.127096 1 1 0
0.132925 0.1271 0.1271 1 1 0
0.13293 0.127104 0.127104 1 1 0
0.132934 0.127108 0.127108 1 1 0
0.132939 0.127112 0.127112 1 1 0
0.132943 0.127116 0.127116 1 1 0
0.132947 0.12712 0.12712 1 1 0
0.132952 0.127124 0.127124 1 1 0
0.132956 0.127128 0.127128 1 1 0
0.13296 0.127132 0.127132 1 1 0
0.132965 0.127136 0.127136 1 1 0
0.132969 0.12714 0.12714 1 1 0
0.132973 0.127144 0.127144 1 1 0
0.132978 0.127148 0.127148 1 1 0
0.132982 0.127152 0.127152 1 1 0
0.132987 0.127156 0.127156 1 1 0
0.132991 0.12716 0.12716 1 1 0
0.132995 0.127164 0.127164 1 1 0
0.133 0.127168 0.127168 1 1 0
0.133004 0.127172 0.127172 1 1 0
0.133008 0.127176 0.127176 1 1 0
0.133013 0.12718 0.12718 1 1 0
0.133017 0.127184 0.127184 1 1 0
0.133022 0.127188 0.127188 1 1 0
0.133026 0.127192 0.127192 1 1 0
0.13303 0.127196 0.127196 1 1 0
0.133035 0.1272 0.1272 1 1 0
0.133039 0.127204 0.127204 1 1 0
0.133043 0.127208 0.127208 1 1 0
0.133048 0.127212 0.127212 1 1 0
0.133052 0.127216 0.127216 1 1 0
0.133057 0.12722 0.12722 1 1 0
0.133061 0.127224 0.127224 1 1 0
0.133065 0.127228 0.127228 1 1 0
0.13307 0.127232 0.127232 1 1 0
0.133074 0.127236 0.127236 1 1 0
0.133079 0.12724 0.12724 1 1 0
0.133083 0.127244 0.127244 1 1 0
0.133087 0.127248 0.127248 1 1 0
0.133092 0.127252 0.127252 1 1 0
0.133096 0.127256 0.127256 1 1 0
0.1331 0.12726 0.12726 1 1 0
0.133105 0.127264 0.127264 1 1 0
0.133109 0.127268 0.127268 1 1 0
0.133114 0.127272 0.127272 1 1 0
0.133118 0.127276 0.127276 1 1 0
0.133122 0.12728 0.12728 1 1 0
0.133127 0.127284 0.127284 1 1 0
0.133131 0.127288 0.127288 1 1 0
0.133136 0.127292 0.127292 1 1 0
