0.126095 79.6859 79.6859 1 1 0
0.126099 79.6859 79.6859 1 1 0
0.126102 79.6859 79.6859 1 1 0
0.126106 79.6859 79.6859 1 1 0
0.126109 79.6859 79.6859 1 1 0
0.126113 79.6859 79.6859 1 1 0
0.126116 79.6859 79.6859 1 1 0
0.12612 79.6858 79.6858 1 1 0
0.126123 79.6858 79.6858 1 1 0
0.126127 79.6858 79.6858 1 1 0
0.126131 79.6858 79.6858 1 1 0
0.126134 79.6858 79.6858 1 1 0
0.126138 79.6858 79.6858 1 1 0
0.126141 79.6858 79.6858 1 1 0
0.126145 79.6858 79.6858 1 1 0
0.126148 79.6858 79.6858 1 1 0
0.126152 79.6857 79.6857 1 1 0
0.126155 79.6857 79.6857 1 1 0
0.126159 79.6857 79.6857 1 1 0
0.126162 79.6857 79.6857 1 1 0
0.126166 79.6857 79.6857 1 1 0
0.126169 79.6857 79.6857 1 1 0
0.126173 79.6857 79.6857 1 1 0
0.126177 79.6857 79.6857 1 1 0
0.12618 79.6857 79.6857 1 1 0
0.126184 79.6857 79.6857 1 1 0
0.126187 79.6856 79.6856 1 1 0
0.126191 79.6856 79.6856 1 1 0
0.126194 79.6856 79.6856 1 1 0
0.126198 79.6856 79.6856 1 1 0
0.126201 79.6856 79.6856 1 1 0
0.126205 79.6856 79.6856 1 1 0
0.126208 79.6856 79.6856 1 1 0
0.126212 79.6856 79.6856 1 1 0
0.126216 79.6856 79.6856 1 1 0
0.126219 79.6855 79.6855 1 1 0
0.126223 79.6855 79.6855 1 1 0
0.126226 79.6855 79.6855 1 1 0
0.12623 79.6855 79.6855 1 1 0
0.126233 79.6855 79.6855 1 1 0
0.126237 79.6855 79.6855 1 1 0
0.12624 79.6855 79.6855 1 1 0
0.126244 79.6855 79.6855 1 1 0
0.126247 79.6855 79.6855 1 1 0
0.126251 79.6855 79.6855 1 1 0
0.126255 79.6854 79.6854 1 1 0
0.126258 79.6854 79.6854 1 1 0
0.126262 79.6854 79.6854 1 1 0
0.126265 79.6854 79.6854 1 1 0
0.126269 79.6854 79.6854 1 1 0
0.126272 79.6854 79.6854 1 1 0
0.126276 79.6854 79.6854 1 1 0
0.126279 79.6854 79.6854 1 1 0
0.126283 79.6854 79.6854 1 1 0
0.126287 79.6853 79.6853 1 1 0
0.12629 79.6853 79.6853 1 1 0
0.126294 79.6853 79.6853 1 1 0
0.126297 79.6853 79.6853 1 1 0
0.126301 79.6853 79.6853 1 1 0
0.126304 79.6853 79.6853 1 1 0
0.126308 79.6853 79.6853 1 1 0
0.126311 79.6853 79.6853 1 1 0
0.126315 79.6853 79.6853 1 1 0
0.126319 79.6853 79.6853 1 1 0
0.126322 79.6852 79.6852 1 1 0
0.126326 79.6852 79.6852 1 1 0
0.126329 79.6852 79.6852 1 1 0
0.126333 79.6852 79.6852 1 1 0
0.126336 79.6852 79.6852 1 1 0
0.12634 79.6852 79.6852 1 1 0
0.126343 79.6852 79.6852 1 1 0
0.126347 79.6852 79.6852 1 1 0
0.126351 79.6852 79.6852 1 1 0
0.126354 79.6851 79.6851 1 1 0
0.126358 79.6851 79.6851 1 1 0
0.126361 79.6851 79.6851 1 1 0
0.126365 79.6851 79.6851 1 1 0
0.126368 79.6851 79.6851 1 1 0
0.126372 79.6851 79.6851 1 1 0
0.126376 79.6851 79.6851 1 1 0
0.126379 79.6851 79.6851 1 1 0
0.126383 79.6851 79.6851 1 1 0
0.126386 79.6851 79.6851 1 1 0
0.12639 79.685 79.685 1 1 0
0.126393 79.685 79.685 1 1 0
0.126397 79.685 79.685 1 1 0
0.126401 79.685 79.685 1 1 0
0.126404 79.685 79.685 1 1 0
0.126408 79.685 79.685 1 1 0
0.126411 79.685 79.685 1 1 0
0.126415 79.685 79.685 1 1 0
0.126418 79.685 79.685 1 1 0
0.126422 79.685 79.685 1 1 0
0.126425 79.6849 79.6849 1 1 0
0.126429 79.6849 79.6849 1 1 0
0.126433 79.6849 79.6849 1 1 0
0.126436 79.6849 79.6849 1 1 0
0.12644 79.6849 79.6849 1 1 0
0.126443 79.6849 79.6849 1 1 0
0.126447 79.6849 79.6849 1 1 0
0.12645 79.6849 79.6849 1 1 0
0.126454 79.6849 79.6849 1 1 0
0.126458 79.6848 79.6848 1 1 0
0.126461 79.6848 79.6848 1 1 0
0.126465 79.6848 79.6848 1 1 0
0.126468 79.6848 79.6848 1 1 0
0.126472 79.6848 79.6848 1 1 0
0.126475 79.6848 79.6848 1 1 0
0.126479 79.6848 79.6848 1 1 0
0.126483 79.6848 79.6848 1 1 0
0.126486 79.6848 79.6848 1 1 0
0.12649 79.6848 79.6848 1 1 0
0.126493 79.6847 79.6847 1 1 0
0.126497 79.6847 79.6847 1 1 0
0.126501 79.6847 79.6847 1 1 0
0.126504 79.6847 79.6847 1 1 0
0.126508 79.6847 79.6847 1 1 0
0.126511 79.6847 79.6847 1 1 0
0.126515 79.6847 79.6847 1 1 0
0.126518 79.6847 79.6847 1 1 0
0.126522 79.6847 79.6847 1 1 0
0.126526 79.6846 79.6846 1 1 0
0.126529 79.6846 79.6846 1 1 0
0.126533 79.6846 79.6846 1 1 0
0.126536 79.6846 79.6846 1 1 0
0.12654 79.6846 79.6846 1 1 0
0.126543 79.6846 79.6846 1 1 0
0.126547 79.6846 79.6846 1 1 0
0.126551 79.6846 79.6846 1 1 0
0.126554 79.6846 79.6846 1 1 0
0.126558 79.6846 79.6846 1 1 0
0.126561 79.6845 79.6845 1 1 0
0.126565 79.6845 79.6845 1 1 0
0.126569 79.6845 79.6845 1 1 0
0.126572 79.6845 79.6845 1 1 0
0.126576 79.6845 79.6845 1 1 0
0.126579 79.6845 79.6845 1 1 0
0.126583 79.6845 79.6845 1 1 0
0.126586 79.6845 79.6845 1 1 0
0.12659 79.6845 79.6845 1 1 0
0.126594 79.6844 79.6844 1 1 0
0.126597 79.6844 79.6844 1 1 0
0.126601 79.6844 79.6844 1 1 0
0.126604 79.6844 79.6844 1 1 0
0.126608 79.6844 79.6844 1 1 0
0.126612 79.6844 79.6844 1 1 0
0.126615 79.6844 79.6844 1 1 0
0.126619 79.6844 79.6844 1 1 0
0.126622 79.6844 79.6844 1 1 0
0.126626 79.6844 79.6844 1 1 0
0.12663 79.6843 79.6843 1 1 0
0.126633 79.6843 79.6843 1 1 0
0.126637 79.6843 79.6843 1 1 0
0.12664 79.6843 79.6843 1 1 0
0.126644 79.6843 79.6843 1 1 0
0.126648 79.6843 79.6843 1 1 0
0.126651 79.6843 79.6843 1 1 0
0.126655 79.6843 79.6843 1 1 0
0.126658 79.6843 79.6843 1 1 0
0.126662 79.6842 79.6842 1 1 0
0.126665 79.6842 79.6842 1 1 0
0.126669 79.6842 79.6842 1 1 0
0.126673 79.6842 79.6842 1 1 0
0.126676 79.6842 79.6842 1 1 0
0.12668 79.6842 79.6842 1 1 0
0.126683 79.6842 79.6842 1 1 0
0.126687 79.6842 79.6842 1 1 0
0.126691 79.6842 79.6842 1 1 0
0.126694 79.6842 79.6842 1 1 0
0.126698 79.6841 79.6841 1 1 0
0.126701 79.6841 79.6841 1 1 0
0.126705 79.6841 79.6841 1 1 0
0.126709 79.6841 79.6841 1 1 0
0.126712 79.6841 79.6841 1 1 0
0.126716 79.6841 79.6841 1 1 0
0.126719 79.6841 79.6841 1 1 0
0.126723 79.6841 79.6841 1 1 0
0.126727 79.6841 79.6841 1 1 0
0.12673 79.684 79.684 1 1 0
0.126734 79.684 79.684 1 1 0
0.126737 79.684 79.684 1 1 0
0.126741 79.684 79.684 1 1 0
0.126745 79.684 79.684 1 1 0
0.126748 79.684 79.684 1 1 0
0.126752 79.684 79.684 1 1 0
0.126755 79.684 79.684 1 1 0
0.126759 79.684 79.684 1 1 0
0.126763 79.684 79.684 1 1 0
0.126766 79.6839 79.6839 1 1 0
0.12677 79.6839 79.6839 1 1 0
0.126774 79.6839 79.6839 1 1 0
0.126777 79.6839 79.6839 1 1 0
0.126781 79.6839 79.6839 1 1 0
0.126784 79.6839 79.6839 1 1 0
0.126788 79.6839 79.6839 1 1 0
0.126792 79.6839 79.6839 1 1 0
0.126795 79.6839 79.6839 1 1 0
0.126799 79.6838 79.6838 1 1 0
0.126802 79.6838 79.6838 1 1 0
0.126806 79.6838 79.6838 1 1 0
0.12681 79.6838 79.6838 1 1 0
0.126813 79.6838 79.6838 1 1 0
0.126817 79.6838 79.6838 1 1 0
0.12682 79.6838 79.6838 1 1 0
0.126824 79.6838 79.6838 1 1 0
0.126828 79.6838 79.6838 1 1 0
0.126831 79.6838 79.6838 1 1 0
0.126835 79.6837 79.6837 1 1 0
0.126839 79.6837 79.6837 1 1 0
0.126842 79.6837 79.6837 1 1 0
0.126846 79.6837 79.6837 1 1 0
0.126849 79.6837 79.6837 1 1 0
0.126853 79.6837 79.6837 1 1 0
0.126857 79.6837 79.6837 1 1 0
0.12686 79.6837 79.6837 1 1 0
0.126864 79.6837 79.6837 1 1 0
0.126867 79.6836 79.6836 1 1 0
0.126871 79.6836 79.6836 1 1 0
0.126875 79.6836 79.6836 1 1 0
0.126878 79.6836 79.6836 1 1 0
0.126882 79.6836 79.6836 1 1 0
0.126886 79.6836 79.6836 1 1 0
0.126889 79.6836 79.6836 1 1 0
0.126893 79.6836 79.6836 1 1 0
0.126896 79.6836 79.6836 1 1 0
0.1269 79.6836 79.6836 1 1 0
0.126904 79.6835 79.6835 1 1 0
0.126907 79.6835 79.6835 1 1 0
0.126911 79.6835 79.6835 1 1 0
0.126914 79.6835 79.6835 1 1 0
0.126918 79.6835 79.6835 1 1 0
0.126922 79.6835 79.6835 1 1 0
0.126925 79.6835 79.6835 1 1 0
0.126929 79.6835 79.6835 1 1 0
0.126933 79.6835 79.6835 1 1 0
0.126936 79.6834 79.6834 1 1 0
0.12694 79.6834 79.6834 1 1 0
0.126943 79.6834 79.6834 1 1 0
0.126947 79.6834 79.6834 1 1 0
0.126951 79.6834 79.6834 1 1 0
0.126954 79.6834 79.6834 1 1 0
0.126958 79.6834 79.6834 1 1 0
0.126962 79.6834 79.6834 1 1 0
0.126965 79.6834 79.6834 1 1 0
0.126969 79.6834 79.6834 1 1 0
0.126972 79.6833 79.6833 1 1 0
0.126976 79.6833 79.6833 1 1 0
0.12698 79.6833 79.6833 1 1 0
0.126983 79.6833 79.6833 1 1 0
0.126987 79.6833 79.6833 1 1 0
0.126991 79.6833 79.6833 1 1 0
0.126994 79.6833 79.6833 1 1 0
0.126998 79.6833 79.6833 1 1 0
0.127002 79.6833 79.6833 1 1 0
0.127005 79.6832 79.6832 1 1 0
0.127009 79.6832 79.6832 1 1 0
0.127012 79.6832 79.6832 1 1 0
0.127016 79.6832 79.6832 1 1 0
0.12702 79.6832 79.6832 1 1 0
0.127023 79.6832 79.6832 1 1 0
0.127027 79.6832 79.6832 1 1 0
0.127031 79.6832 79.6832 1 1 0
0.127034 79.6832 79.6832 1 1 0
0.127038 79.6832 79.6832 1 1 0
0.127041 79.6831 79.6831 1 1 0
0.127045 79.6831 79.6831 1 1 0
0.127049 79.6831 79.6831 1 1 0
0.127052 79.6831 79.6831 1 1 0
0.127056 79.6831 79.6831 1 1 0
0.12706 79.6831 79.6831 1 1 0
0.127063 79.6831 79.6831 1 1 0
0.127067 79.6831 79.6831 1 1 0
0.127071 79.6831 79.6831 1 1 0
0.127074 79.683 79.683 1 1 0
0.127078 79.683 79.683 1 1 0
0.127081 79.683 79.683 1 1 0
0.127085 79.683 79.683 1 1 0
0.127089 79.683 79.683 1 1 0
0.127092 79.683 79.683 1 1 0
0.127096 79.683 79.683 1 1 0
0.1271 79.683 79.683 1 1 0
0.127103 79.683 79.683 1 1 0
0.127107 79.683 79.683 1 1 0
0.127111 79.6829 79.6829 1 1 0
0.127114 79.6829 79.6829 1 1 0
0.127118 79.6829 79.6829 1 1 0
0.127122 79.6829 79.6829 1 1 0
0.127125 79.6829 79.6829 1 1 0
0.127129 79.6829 79.6829 1 1 0
0.127132 79.6829 79.6829 1 1 0
0.127136 79.6829 79.6829 1 1 0
0.12714 79.6829 79.6829 1 1 0
0.127143 79.6828 79.6828 1 1 0
0.127147 79.6828 79.6828 1 1 0
0.127151 79.6828 79.6828 1 1 0
0.127154 79.6828 79.6828 1 1 0
0.127158 79.6828 79.6828 1 1 0
0.127162 79.6828 79.6828 1 1 0
0.127165 79.6828 79.6828 1 1 0
0.127169 79.6828 79.6828 1 1 0
0.127173 79.6828 79.6828 1 1 0
0.127176 79.6828 79.6828 1 1 0
0.12718 79.6827 79.6827 1 1 0
0.127184 79.6827 79.6827 1 1 0
0.127187 79.6827 79.6827 1 1 0
0.127191 79.6827 79.6827 1 1 0
0.127195 79.6827 79.6827 1 1 0
0.127198 79.6827 79.6827 1 1 0
0.127202 79.6827 79.6827 1 1 0
0.127205 79.6827 79.6827 1 1 0
0.127209 79.6827 79.6827 1 1 0
0.127213 79.6826 79.6826 1 1 0
0.127216 79.6826 79.6826 1 1 0
0.12722 79.6826 79.6826 1 1 0
0.127224 79.6826 79.6826 1 1 0
0.127227 79.6826 79.6826 1 1 0
0.127231 79.6826 79.6826 1 1 0
0.127235 79.6826 79.6826 1 1 0
0.127238 79.6826 79.6826 1 1 0
0.127242 79.6826 79.6826 1 1 0
0.127246 79.6826 79.6826 1 1 0
0.127249 79.6825 79.6825 1 1 0
0.127253 79.6825 79.6825 1 1 0
0.127257 79.6825 79.6825 1 1 0
0.12726 79.6825 79.6825 1 1 0
0.127264 79.6825 79.6825 1 1 0
0.127268 79.6825 79.6825 1 1 0
0.127271 79.6825 79.6825 1 1 0
0.127275 79.6825 79.6825 1 1 0
0.127279 79.6825 79.6825 1 1 0
0.127282 79.6824 79.6824 1 1 0
0.127286 79.6824 79.6824 1 1 0
0.12729 79.6824 79.6824 1 1 0
0.127293 79.6824 79.6824 1 1 0
0.127297 79.6824 79.6824 1 1 0
0.127301 79.6824 79.6824 1 1 0
0.127304 79.6824 79.6824 1 1 0
0.127308 79.6824 79.6824 1 1 0
0.127312 79.6824 79.6824 1 1 0
0.127315 79.6824 79.6824 1 1 0
0.127319 79.6823 79.6823 1 1 0
0.127323 79.6823 79.6823 1 1 0
0.127326 79.6823 79.6823 1 1 0
0.12733 79.6823 79.6823 1 1 0
0.127334 79.6823 79.6823 1 1 0
0.127337 79.6823 79.6823 1 1 0
0.127341 79.6823 79.6823 1 1 0
0.127345 79.6823 79.6823 1 1 0
0.127348 79.6823 79.6823 1 1 0
0.127352 79.6822 79.6822 1 1 0
0.127356 79.6822 79.6822 1 1 0
0.127359 79.6822 79.6822 1 1 0
0.127363 79.6822 79.6822 1 1 0
0.127367 79.6822 79.6822 1 1 0
0.12737 79.6822 79.6822 1 1 0
0.127374 79.6822 79.6822 1 1 0
0.127378 79.6822 79.6822 1 1 0
0.127381 79.6822 79.6822 1 1 0
0.127385 79.6822 79.6822 1 1 0
0.127389 79.6821 79.6821 1 1 0
0.127392 79.6821 79.6821 1 1 0
0.127396 79.6821 79.6821 1 1 0
0.1274 79.6821 79.6821 1 1 0
0.127403 79.6821 79.6821 1 1 0
0.127407 79.6821 79.6821 1 1 0
0.127411 79.6821 79.6821 1 1 0
0.127414 79.6821 79.6821 1 1 0
0.127418 79.6821 79.6821 1 1 0
0.127422 79.682 79.682 1 1 0
0.127425 79.682 79.682 1 1 0
0.127429 79.682 79.682 1 1 0
0.127433 79.682 79.682 1 1 0
0.127436 79.682 79.682 1 1 0
0.12744 79.682 79.682 1 1 0
0.127444 79.682 79.682 1 1 0
0.127447 79.682 79.682 1 1 0
0.127451 79.682 79.682 1 1 0
0.127455 79.682 79.682 1 1 0
0.127459 79.6819 79.6819 1 1 0
0.127462 79.6819 79.6819 1 1 0
0.127466 79.6819 79.6819 1 1 0
0.12747 79.6819 79.6819 1 1 0
0.127473 79.6819 79.6819 1 1 0
0.127477 79.6819 79.6819 1 1 0
0.127481 79.6819 79.6819 1 1 0
0.127484 79.6819 79.6819 1 1 0
0.127488 79.6819 79.6819 1 1 0
0.127492 79.6818 79.6818 1 1 0
0.127495 79.6818 79.6818 1 1 0
0.127499 79.6818 79.6818 1 1 0
0.127503 79.6818 79.6818 1 1 0
0.127506 79.6818 79.6818 1 1 0
0.12751 79.6818 79.6818 1 1 0
0.127514 79.6818 79.6818 1 1 0
0.127517 79.6818 79.6818 1 1 0
0.127521 79.6818 79.6818 1 1 0
0.127525 79.6818 79.6818 1 1 0
0.127529 79.6817 79.6817 1 1 0
0.127532 79.6817 79.6817 1 1 0
0.127536 79.6817 79.6817 1 1 0
0.12754 79.6817 79.6817 1 1 0
0.127543 79.6817 79.6817 1 1 0
0.127547 79.6817 79.6817 1 1 0
0.127551 79.6817 79.6817 1 1 0
0.127554 79.6817 79.6817 1 1 0
0.127558 79.6817 79.6817 1 1 0
0.127562 79.6816 79.6816 1 1 0
0.127565 79.6816 79.6816 1 1 0
0.127569 79.6816 79.6816 1 1 0
0.127573 79.6816 79.6816 1 1 0
0.127577 79.6816 79.6816 1 1 0
0.12758 79.6816 79.6816 1 1 0
0.127584 79.6816 79.6816 1 1 0
0.127588 79.6816 79.6816 1 1 0
0.127591 79.6816 79.6816 1 1 0
0.127595 79.6816 79.6816 1 1 0
0.127599 79.6815 79.6815 1 1 0
0.127602 79.6815 79.6815 1 1 0
0.127606 79.6815 79.6815 1 1 0
0.12761 79.6815 79.6815 1 1 0
0.127613 79.6815 79.6815 1 1 0
0.127617 79.6815 79.6815 1 1 0
0.127621 79.6815 79.6815 1 1 0
0.127625 79.6815 79.6815 1 1 0
0.127628 79.6815 79.6815 1 1 0
0.127632 79.6814 79.6814 1 1 0
0.127636 79.6814 79.6814 1 1 0
0.127639 79.6814 79.6814 1 1 0
0.127643 79.6814 79.6814 1 1 0
0.127647 79.6814 79.6814 1 1 0
0.12765 79.6814 79.6814 1 1 0
0.127654 79.6814 79.6814 1 1 0
0.127658 79.6814 79.6814 1 1 0
0.127662 79.6814 79.6814 1 1 0
0.127665 79.6814 79.6814 1 1 0
0.127669 79.6813 79.6813 1 1 0
0.127673 79.6813 79.6813 1 1 0
0.127676 79.6813 79.6813 1 1 0
0.12768 79.6813 79.6813 1 1 0
0.127684 79.6813 79.6813 1 1 0
0.127688 79.6813 79.6813 1 1 0
0.127691 79.6813 79.6813 1 1 0
0.127695 79.6813 79.6813 1 1 0
0.127699 79.6813 79.6813 1 1 0
0.127702 79.6812 79.6812 1 1 0
0.127706 79.6812 79.6812 1 1 0
0.12771 79.6812 79.6812 1 1 0
0.127713 79.6812 79.6812 1 1 0
0.127717 79.6812 79.6812 1 1 0
0.127721 79.6812 79.6812 1 1 0
0.127725 79.6812 79.6812 1 1 0
0.127728 79.6812 79.6812 1 1 0
0.127732 79.6812 79.6812 1 1 0
0.127736 79.6812 79.6812 1 1 0
0.127739 79.6811 79.6811 1 1 0
0.127743 79.6811 79.6811 1 1 0
0.127747 79.6811 79.6811 1 1 0
0.127751 79.6811 79.6811 1 1 0
0.127754 79.6811 79.6811 1 1 0
0.127758 79.6811 79.6811 1 1 0
0.127762 79.6811 79.6811 1 1 0
0.127765 79.6811 79.6811 1 1 0
0.127769 79.6811 79.6811 1 1 0
0.127773 79.681 79.681 1 1 0
0.127777 79.681 79.681 1 1 0
0.12778 79.681 79.681 1 1 0
0.127784 79.681 79.681 1 1 0
0.127788 79.681 79.681 1 1 0
0.127791 79.681 79.681 1 1 0
0.127795 79.681 79.681 1 1 0
0.127799 79.681 79.681 1 1 0
0.127803 79.681 79.681 1 1 0
0.127806 79.681 79.681 1 1 0
0.12781 79.6809 79.6809 1 1 0
0.127814 79.6809 79.6809 1 1 0
0.127818 79.6809 79.6809 1 1 0
0.127821 79.6809 79.6809 1 1 0
0.127825 79.6809 79.6809 1 1 0
0.127829 79.6809 79.6809 1 1 0
0.127832 79.6809 79.6809 1 1 0
0.127836 79.6809 79.6809 1 1 0
0.12784 79.6809 79.6809 1 1 0
0.127844 79.6808 79.6808 1 1 0
0.127847 79.6808 79.6808 1 1 0
0.127851 79.6808 79.6808 1 1 0
0.127855 79.6808 79.6808 1 1 0
0.127858 79.6808 79.6808 1 1 0
0.127862 79.6808 79.6808 1 1 0
0.127866 79.6808 79.6808 1 1 0
0.12787 79.6808 79.6808 1 1 0
0.127873 79.6808 79.6808 1 1 0
0.127877 79.6808 79.6808 1 1 0
0.127881 79.6807 79.6807 1 1 0
0.127885 79.6807 79.6807 1 1 0
0.127888 79.6807 79.6807 1 1 0
0.127892 79.6807 79.6807 1 1 0
0.127896 79.6807 79.6807 1 1 0
0.127899 79.6807 79.6807 1 1 0
0.127903 79.6807 79.6807 1 1 0
0.127907 79.6807 79.6807 1 1 0
0.127911 79.6807 79.6807 1 1 0
0.127914 79.6806 79.6806 1 1 0
0.127918 79.6806 79.6806 1 1 0
0.127922 79.6806 79.6806 1 1 0
0.127926 79.6806 79.6806 1 1 0
0.127929 79.6806 79.6806 1 1 0
0.127933 79.6806 79.6806 1 1 0
0.127937 79.6806 79.6806 1 1 0
0.127941 79.6806 79.6806 1 1 0
0.127944 79.6806 79.6806 1 1 0
0.127948 79.6806 79.6806 1 1 0
0.127952 79.6805 79.6805 1 1 0
0.127956 79.6805 79.6805 1 1 0
0.127959 79.6805 79.6805 1 1 0
0.127963 79.6805 79.6805 1 1 0
0.127967 79.6805 79.6805 1 1 0
0.12797 79.6805 79.6805 1 1 0
0.127974 79.6805 79.6805 1 1 0
0.127978 79.6805 79.6805 1 1 0
0.127982 79.6805 79.6805 1 1 0
0.127985 79.6804 79.6804 1 1 0
0.127989 79.6804 79.6804 1 1 0
0.127993 79.6804 79.6804 1 1 0
0.127997 79.6804 79.6804 1 1 0
0.128 79.6804 79.6804 1 1 0
0.128004 79.6804 79.6804 1 1 0
0.128008 79.6804 79.6804 1 1 0
0.128012 79.6804 79.6804 1 1 0
0.128015 79.6804 79.6804 1 1 0
0.128019 79.6804 79.6804 1 1 0
0.128023 79.6803 79.6803 1 1 0
0.128027 79.6803 79.6803 1 1 0
0.12803 79.6803 79.6803 1 1 0
0.128034 79.6803 79.6803 1 1 0
0.128038 79.6803 79.6803 1 1 0
0.128042 79.6803 79.6803 1 1 0
0.128045 79.6803 79.6803 1 1 0
0.128049 79.6803 79.6803 1 1 0
0.128053 79.6803 79.6803 1 1 0
0.128057 79.6802 79.6802 1 1 0
0.12806 79.6802 79.6802 1 1 0
0.128064 79.6802 79.6802 1 1 0
0.128068 79.6802 79.6802 1 1 0
0.128072 79.6802 79.6802 1 1 0
0.128075 79.6802 79.6802 1 1 0
0.128079 79.6802 79.6802 1 1 0
0.128083 79.6802 79.6802 1 1 0
0.128087 79.6802 79.6802 1 1 0
0.12809 79.6802 79.6802 1 1 0
0.128094 79.6801 79.6801 1 1 0
0.128098 79.6801 79.6801 1 1 0
0.128102 79.6801 79.6801 1 1 0
0.128105 79.6801 79.6801 1 1 0
0.128109 79.6801 79.6801 1 1 0
0.128113 79.6801 79.6801 1 1 0
0.128117 79.6801 79.6801 1 1 0
0.12812 79.6801 79.6801 1 1 0
0.128124 79.6801 79.6801 1 1 0
0.128128 79.68 79.68 1 1 0
0.128132 79.68 79.68 1 1 0
0.128135 79.68 79.68 1 1 0
0.128139 79.68 79.68 1 1 0
0.128143 79.68 79.68 1 1 0
0.128147 79.68 79.68 1 1 0
0.12815 79.68 79.68 1 1 0
0.128154 79.68 79.68 1 1 0
0.128158 79.68 79.68 1 1 0
0.128162 79.68 79.68 1 1 0
0.128165 79.6799 79.6799 1 1 0
0.128169 79.6799 79.6799 1 1 0
0.128173 79.6799 79.6799 1 1 0
0.128177 79.6799 79.6799 1 1 0
0.12818 79.6799 79.6799 1 1 0
0.128184 79.6799 79.6799 1 1 0
0.128188 79.6799 79.6799 1 1 0
0.128192 79.6799 79.6799 1 1 0
0.128196 79.6799 79.6799 1 1 0
0.128199 79.6798 79.6798 1 1 0
0.128203 79.6798 79.6798 1 1 0
0.128207 79.6798 79.6798 1 1 0
0.128211 79.6798 79.6798 1 1 0
0.128214 79.6798 79.6798 1 1 0
0.128218 79.6798 79.6798 1 1 0
0.128222 79.6798 79.6798 1 1 0
0.128226 79.6798 79.6798 1 1 0
0.128229 79.6798 79.6798 1 1 0
0.128233 79.6798 79.6798 1 1 0
0.128237 79.6797 79.6797 1 1 0
0.128241 79.6797 79.6797 1 1 0
0.128244 79.6797 79.6797 1 1 0
0.128248 79.6797 79.6797 1 1 0
0.128252 79.6797 79.6797 1 1 0
0.128256 79.6797 79.6797 1 1 0
0.12826 79.6797 79.6797 1 1 0
0.128263 79.6797 79.6797 1 1 0
0.128267 79.6797 79.6797 1 1 0
0.128271 79.6796 79.6796 1 1 0
0.128275 79.6796 79.6796 1 1 0
0.128278 79.6796 79.6796 1 1 0
0.128282 79.6796 79.6796 1 1 0
0.128286 79.6796 79.6796 1 1 0
0.12829 79.6796 79.6796 1 1 0
0.128294 79.6796 79.6796 1 1 0
0.128297 79.6796 79.6796 1 1 0
0.128301 79.6796 79.6796 1 1 0
0.128305 79.6796 79.6796 1 1 0
0.128309 79.6795 79.6795 1 1 0
0.128312 79.6795 79.6795 1 1 0
0.128316 79.6795 79.6795 1 1 0
0.12832 79.6795 79.6795 1 1 0
0.128324 79.6795 79.6795 1 1 0
0.128328 79.6795 79.6795 1 1 0
0.128331 79.6795 79.6795 1 1 0
0.128335 79.6795 79.6795 1 1 0
0.128339 79.6795 79.6795 1 1 0
0.128343 79.6794 79.6794 1 1 0
0.128346 79.6794 79.6794 1 1 0
0.12835 79.6794 79.6794 1 1 0
0.128354 79.6794 79.6794 1 1 0
0.128358 79.6794 79.6794 1 1 0
0.128362 79.6794 79.6794 1 1 0
0.128365 79.6794 79.6794 1 1 0
0.128369 79.6794 79.6794 1 1 0
0.128373 79.6794 79.6794 1 1 0
0.128377 79.6794 79.6794 1 1 0
0.12838 79.6793 79.6793 1 1 0
0.128384 79.6793 79.6793 1 1 0
0.128388 79.6793 79.6793 1 1 0
0.128392 79.6793 79.6793 1 1 0
0.128396 79.6793 79.6793 1 1 0
0.128399 79.6793 79.6793 1 1 0
0.128403 79.6793 79.6793 1 1 0
0.128407 79.6793 79.6793 1 1 0
0.128411 79.6793 79.6793 1 1 0
0.128415 79.6793 79.6793 1 1 0
0.128418 79.6792 79.6792 1 1 0
0.128422 79.6792 79.6792 1 1 0
0.128426 79.6792 79.6792 1 1 0
0.12843 79.6792 79.6792 1 1 0
0.128434 79.6792 79.6792 1 1 0
0.128437 79.6792 79.6792 1 1 0
0.128441 79.6792 79.6792 1 1 0
0.128445 79.6792 79.6792 1 1 0
0.128449 79.6792 79.6792 1 1 0
0.128452 79.6791 79.6791 1 1 0
0.128456 79.6791 79.6791 1 1 0
0.12846 79.6791 79.6791 1 1 0
0.128464 79.6791 79.6791 1 1 0
0.128468 79.6791 79.6791 1 1 0
0.128471 79.6791 79.6791 1 1 0
0.128475 79.6791 79.6791 1 1 0
0.128479 79.6791 79.6791 1 1 0
0.128483 79.6791 79.6791 1 1 0
0.128487 79.6791 79.6791 1 1 0
0.12849 79.679 79.679 1 1 0
0.128494 79.679 79.679 1 1 0
0.128498 79.679 79.679 1 1 0
0.128502 79.679 79.679 1 1 0
0.128506 79.679 79.679 1 1 0
0.128509 79.679 79.679 1 1 0
0.128513 79.679 79.679 1 1 0
0.128517 79.679 79.679 1 1 0
0.128521 79.679 79.679 1 1 0
0.128525 79.6789 79.6789 1 1 0
0.128528 79.6789 79.6789 1 1 0
0.128532 79.6789 79.6789 1 1 0
0.128536 79.6789 79.6789 1 1 0
0.12854 79.6789 79.6789 1 1 0
0.128544 79.6789 79.6789 1 1 0
0.128547 79.6789 79.6789 1 1 0
0.128551 79.6789 79.6789 1 1 0
0.128555 79.6789 79.6789 1 1 0
0.128559 79.6789 79.6789 1 1 0
0.128563 79.6788 79.6788 1 1 0
0.128566 79.6788 79.6788 1 1 0
0.12857 79.6788 79.6788 1 1 0
0.128574 79.6788 79.6788 1 1 0
0.128578 79.6788 79.6788 1 1 0
0.128582 79.6788 79.6788 1 1 0
0.128586 79.6788 79.6788 1 1 0
0.128589 79.6788 79.6788 1 1 0
0.128593 79.6788 79.6788 1 1 0
0.128597 79.6787 79.6787 1 1 0
0.128601 79.6787 79.6787 1 1 0
0.128605 79.6787 79.6787 1 1 0
0.128608 79.6787 79.6787 1 1 0
0.128612 79.6787 79.6787 1 1 0
0.128616 79.6787 79.6787 1 1 0
0.12862 79.6787 79.6787 1 1 0
0.128624 79.6787 79.6787 1 1 0
0.128627 79.6787 79.6787 1 1 0
0.128631 79.6787 79.6787 1 1 0
0.128635 79.6786 79.6786 1 1 0
0.128639 79.6786 79.6786 1 1 0
0.128643 79.6786 79.6786 1 1 0
0.128647 79.6786 79.6786 1 1 0
0.12865 79.6786 79.6786 1 1 0
0.128654 79.6786 79.6786 1 1 0
0.128658 79.6786 79.6786 1 1 0
0.128662 79.6786 79.6786 1 1 0
0.128666 79.6786 79.6786 1 1 0
0.128669 79.6785 79.6785 1 1 0
0.128673 79.6785 79.6785 1 1 0
0.128677 79.6785 79.6785 1 1 0
0.128681 79.6785 79.6785 1 1 0
0.128685 79.6785 79.6785 1 1 0
0.128689 79.6785 79.6785 1 1 0
0.128692 79.6785 79.6785 1 1 0
0.128696 79.6785 79.6785 1 1 0
0.1287 79.6785 79.6785 1 1 0
0.128704 79.6785 79.6785 1 1 0
0.128708 79.6784 79.6784 1 1 0
0.128711 79.6784 79.6784 1 1 0
0.128715 79.6784 79.6784 1 1 0
0.128719 79.6784 79.6784 1 1 0
0.128723 79.6784 79.6784 1 1 0
0.128727 79.6784 79.6784 1 1 0
0.128731 79.6784 79.6784 1 1 0
0.128734 79.6784 79.6784 1 1 0
0.128738 79.6784 79.6784 1 1 0
0.128742 79.6783 79.6783 1 1 0
0.128746 79.6783 79.6783 1 1 0
0.12875 79.6783 79.6783 1 1 0
0.128754 79.6783 79.6783 1 1 0
0.128757 79.6783 79.6783 1 1 0
0.128761 79.6783 79.6783 1 1 0
0.128765 79.6783 79.6783 1 1 0
0.128769 79.6783 79.6783 1 1 0
0.128773 79.6783 79.6783 1 1 0
0.128777 79.6783 79.6783 1 1 0
0.12878 79.6782 79.6782 1 1 0
0.128784 79.6782 79.6782 1 1 0
0.128788 79.6782 79.6782 1 1 0
0.128792 79.6782 79.6782 1 1 0
0.128796 79.6782 79.6782 1 1 0
0.1288 79.6782 79.6782 1 1 0
0.128803 79.6782 79.6782 1 1 0
0.128807 79.6782 79.6782 1 1 0
0.128811 79.6782 79.6782 1 1 0
0.128815 79.6781 79.6781 1 1 0
0.128819 79.6781 79.6781 1 1 0
0.128823 79.6781 79.6781 1 1 0
0.128826 79.6781 79.6781 1 1 0
0.12883 79.6781 79.6781 1 1 0
0.128834 79.6781 79.6781 1 1 0
0.128838 79.6781 79.6781 1 1 0
0.128842 79.6781 79.6781 1 1 0
0.128846 79.6781 79.6781 1 1 0
0.128849 79.6781 79.6781 1 1 0
0.128853 79.678 79.678 1 1 0
0.128857 79.678 79.678 1 1 0
0.128861 79.678 79.678 1 1 0
0.128865 79.678 79.678 1 1 0
0.128869 79.678 79.678 1 1 0
0.128872 79.678 79.678 1 1 0
0.128876 79.678 79.678 1 1 0
0.12888 79.678 79.678 1 1 0
0.128884 79.678 79.678 1 1 0
0.128888 79.6779 79.6779 1 1 0
0.128892 79.6779 79.6779 1 1 0
0.128896 79.6779 79.6779 1 1 0
0.128899 79.6779 79.6779 1 1 0
0.128903 79.6779 79.6779 1 1 0
0.128907 79.6779 79.6779 1 1 0
0.128911 79.6779 79.6779 1 1 0
0.128915 79.6779 79.6779 1 1 0
0.128919 79.6779 79.6779 1 1 0
0.128922 79.6779 79.6779 1 1 0
0.128926 79.6778 79.6778 1 1 0
0.12893 79.6778 79.6778 1 1 0
0.128934 79.6778 79.6778 1 1 0
0.128938 79.6778 79.6778 1 1 0
0.128942 79.6778 79.6778 1 1 0
0.128946 79.6778 79.6778 1 1 0
0.128949 79.6778 79.6778 1 1 0
0.128953 79.6778 79.6778 1 1 0
0.128957 79.6778 79.6778 1 1 0
0.128961 79.6777 79.6777 1 1 0
0.128965 79.6777 79.6777 1 1 0
0.128969 79.6777 79.6777 1 1 0
0.128973 79.6777 79.6777 1 1 0
0.128976 79.6777 79.6777 1 1 0
0.12898 79.6777 79.6777 1 1 0
0.128984 79.6777 79.6777 1 1 0
0.128988 79.6777 79.6777 1 1 0
0.128992 79.6777 79.6777 1 1 0
0.128996 79.6777 79.6777 1 1 0
0.128999 79.6776 79.6776 1 1 0
0.129003 79.6776 79.6776 1 1 0
0.129007 79.6776 79.6776 1 1 0
0.129011 79.6776 79.6776 1 1 0
0.129015 79.6776 79.6776 1 1 0
0.129019 79.6776 79.6776 1 1 0
0.129023 79.6776 79.6776 1 1 0
0.129027 79.6776 79.6776 1 1 0
0.12903 79.6776 79.6776 1 1 0
0.129034 79.6775 79.6775 1 1 0
0.129038 79.6775 79.6775 1 1 0
0.129042 79.6775 79.6775 1 1 0
0.129046 79.6775 79.6775 1 1 0
0.12905 79.6775 79.6775 1 1 0
0.129054 79.6775 79.6775 1 1 0
0.129057 79.6775 79.6775 1 1 0
0.129061 79.6775 79.6775 1 1 0
0.129065 79.6775 79.6775 1 1 0
0.129069 79.6775 79.6775 1 1 0
0.129073 79.6774 79.6774 1 1 0
0.129077 79.6774 79.6774 1 1 0
0.129081 79.6774 79.6774 1 1 0
0.129084 79.6774 79.6774 1 1 0
0.129088 79.6774 79.6774 1 1 0
0.129092 79.6774 79.6774 1 1 0
0.129096 79.6774 79.6774 1 1 0
0.1291 79.6774 79.6774 1 1 0
0.129104 79.6774 79.6774 1 1 0
0.129108 79.6773 79.6773 1 1 0
0.129112 79.6773 79.6773 1 1 0
0.129115 79.6773 79.6773 1 1 0
0.129119 79.6773 79.6773 1 1 0
0.129123 79.6773 79.6773 1 1 0
0.129127 79.6773 79.6773 1 1 0
0.129131 79.6773 79.6773 1 1 0
0.129135 79.6773 79.6773 1 1 0
0.129139 79.6773 79.6773 1 1 0
0.129143 79.6773 79.6773 1 1 0
0.129146 79.6772 79.6772 1 1 0
0.12915 79.6772 79.6772 1 1 0
0.129154 79.6772 79.6772 1 1 0
0.129158 79.6772 79.6772 1 1 0
0.129162 79.6772 79.6772 1 1 0
0.129166 79.6772 79.6772 1 1 0
0.12917 79.6772 79.6772 1 1 0
0.129174 79.6772 79.6772 1 1 0
0.129177 79.6772 79.6772 1 1 0
0.129181 79.6771 79.6771 1 1 0
0.129185 79.6771 79.6771 1 1 0
0.129189 79.6771 79.6771 1 1 0
0.129193 79.6771 79.6771 1 1 0
0.129197 79.6771 79.6771 1 1 0
0.129201 79.6771 79.6771 1 1 0
0.129205 79.6771 79.6771 1 1 0
0.129208 79.6771 79.6771 1 1 0
0.129212 79.6771 79.6771 1 1 0
0.129216 79.6771 79.6771 1 1 0
0.12922 79.677 79.677 1 1 0
0.129224 79.677 79.677 1 1 0
0.129228 79.677 79.677 1 1 0
0.129232 79.677 79.677 1 1 0
0.129236 79.677 79.677 1 1 0
0.12924 79.677 79.677 1 1 0
0.129243 79.677 79.677 1 1 0
0.129247 79.677 79.677 1 1 0
0.129251 79.677 79.677 1 1 0
0.129255 79.6769 79.6769 1 1 0
0.129259 79.6769 79.6769 1 1 0
0.129263 79.6769 79.6769 1 1 0
0.129267 79.6769 79.6769 1 1 0
0.129271 79.6769 79.6769 1 1 0
0.129275 79.6769 79.6769 1 1 0
0.129278 79.6769 79.6769 1 1 0
0.129282 79.6769 79.6769 1 1 0
0.129286 79.6769 79.6769 1 1 0
0.12929 79.6769 79.6769 1 1 0
0.129294 79.6768 79.6768 1 1 0
0.129298 79.6768 79.6768 1 1 0
0.129302 79.6768 79.6768 1 1 0
0.129306 79.6768 79.6768 1 1 0
0.12931 79.6768 79.6768 1 1 0
0.129313 79.6768 79.6768 1 1 0
0.129317 79.6768 79.6768 1 1 0
0.129321 79.6768 79.6768 1 1 0
0.129325 79.6768 79.6768 1 1 0
0.129329 79.6767 79.6767 1 1 0
0.129333 79.6767 79.6767 1 1 0
0.129337 79.6767 79.6767 1 1 0
0.129341 79.6767 79.6767 1 1 0
0.129345 79.6767 79.6767 1 1 0
0.129349 79.6767 79.6767 1 1 0
0.129352 79.6767 79.6767 1 1 0
0.129356 79.6767 79.6767 1 1 0
0.12936 79.6767 79.6767 1 1 0
0.129364 79.6767 79.6767 1 1 0
0.129368 79.6766 79.6766 1 1 0
0.129372 79.6766 79.6766 1 1 0
0.129376 79.6766 79.6766 1 1 0
0.12938 79.6766 79.6766 1 1 0
0.129384 79.6766 79.6766 1 1 0
0.129388 79.6766 79.6766 1 1 0
0.129391 79.6766 79.6766 1 1 0
0.129395 79.6766 79.6766 1 1 0
0.129399 79.6766 79.6766 1 1 0
0.129403 79.6766 79.6766 1 1 0
0.129407 79.6765 79.6765 1 1 0
0.129411 79.6765 79.6765 1 1 0
0.129415 79.6765 79.6765 1 1 0
0.129419 79.6765 79.6765 1 1 0
0.129423 79.6765 79.6765 1 1 0
0.129427 79.6765 79.6765 1 1 0
0.129431 79.6765 79.6765 1 1 0
0.129434 79.6765 79.6765 1 1 0
0.129438 79.6765 79.6765 1 1 0
0.129442 79.6764 79.6764 1 1 0
0.129446 79.6764 79.6764 1 1 0
0.12945 79.6764 79.6764 1 1 0
0.129454 79.6764 79.6764 1 1 0
0.129458 79.6764 79.6764 1 1 0
0.129462 79.6764 79.6764 1 1 0
0.129466 79.6764 79.6764 1 1 0
0.12947 79.6764 79.6764 1 1 0
0.129474 79.6764 79.6764 1 1 0
0.129477 79.6764 79.6764 1 1 0
0.129481 79.6763 79.6763 1 1 0
0.129485 79.6763 79.6763 1 1 0
0.129489 79.6763 79.6763 1 1 0
0.129493 79.6763 79.6763 1 1 0
0.129497 79.6763 79.6763 1 1 0
0.129501 79.6763 79.6763 1 1 0
0.129505 79.6763 79.6763 1 1 0
0.129509 79.6763 79.6763 1 1 0
0.129513 79.6763 79.6763 1 1 0
0.129517 79.6762 79.6762 1 1 0
0.129521 79.6762 79.6762 1 1 0
0.129524 79.6762 79.6762 1 1 0
0.129528 79.6762 79.6762 1 1 0
0.129532 79.6762 79.6762 1 1 0
0.129536 79.6762 79.6762 1 1 0
0.12954 79.6762 79.6762 1 1 0
0.129544 79.6762 79.6762 1 1 0
0.129548 79.6762 79.6762 1 1 0
0.129552 79.6762 79.6762 1 1 0
0.129556 79.6761 79.6761 1 1 0
0.12956 79.6761 79.6761 1 1 0
0.129564 79.6761 79.6761 1 1 0
0.129568 79.6761 79.6761 1 1 0
0.129572 79.6761 79.6761 1 1 0
0.129575 79.6761 79.6761 1 1 0
0.129579 79.6761 79.6761 1 1 0
0.129583 79.6761 79.6761 1 1 0
0.129587 79.6761 79.6761 1 1 0
0.129591 79.676 79.676 1 1 0
0.129595 79.676 79.676 1 1 0
0.129599 79.676 79.676 1 1 0
0.129603 79.676 79.676 1 1 0
0.129607 79.676 79.676 1 1 0
0.129611 79.676 79.676 1 1 0
0.129615 79.676 79.676 1 1 0
0.129619 79.676 79.676 1 1 0
0.129623 79.676 79.676 1 1 0
0.129627 79.676 79.676 1 1 0
0.12963 79.6759 79.6759 1 1 0
0.129634 79.6759 79.6759 1 1 0
0.129638 79.6759 79.6759 1 1 0
0.129642 79.6759 79.6759 1 1 0
0.129646 79.6759 79.6759 1 1 0
0.12965 79.6759 79.6759 1 1 0
0.129654 79.6759 79.6759 1 1 0
0.129658 79.6759 79.6759 1 1 0
0.129662 79.6759 79.6759 1 1 0
0.129666 79.6758 79.6758 1 1 0
0.12967 79.6758 79.6758 1 1 0
0.129674 79.6758 79.6758 1 1 0
0.129678 79.6758 79.6758 1 1 0
0.129682 79.6758 79.6758 1 1 0
0.129686 79.6758 79.6758 1 1 0
0.12969 79.6758 79.6758 1 1 0
0.129693 79.6758 79.6758 1 1 0
0.129697 79.6758 79.6758 1 1 0
0.129701 79.6758 79.6758 1 1 0
0.129705 79.6757 79.6757 1 1 0
0.129709 79.6757 79.6757 1 1 0
0.129713 79.6757 79.6757 1 1 0
0.129717 79.6757 79.6757 1 1 0
0.129721 79.6757 79.6757 1 1 0
0.129725 79.6757 79.6757 1 1 0
0.129729 79.6757 79.6757 1 1 0
0.129733 79.6757 79.6757 1 1 0
0.129737 79.6757 79.6757 1 1 0
0.129741 79.6756 79.6756 1 1 0
0.129745 79.6756 79.6756 1 1 0
0.129749 79.6756 79.6756 1 1 0
0.129753 79.6756 79.6756 1 1 0
0.129757 79.6756 79.6756 1 1 0
0.129761 79.6756 79.6756 1 1 0
0.129764 79.6756 79.6756 1 1 0
0.129768 79.6756 79.6756 1 1 0
0.129772 79.6756 79.6756 1 1 0
0.129776 79.6756 79.6756 1 1 0
0.12978 79.6755 79.6755 1 1 0
0.129784 79.6755 79.6755 1 1 0
0.129788 79.6755 79.6755 1 1 0
0.129792 79.6755 79.6755 1 1 0
0.129796 79.6755 79.6755 1 1 0
0.1298 79.6755 79.6755 1 1 0
0.129804 79.6755 79.6755 1 1 0
0.129808 79.6755 79.6755 1 1 0
0.129812 79.6755 79.6755 1 1 0
0.129816 79.6754 79.6754 1 1 0
0.12982 79.6754 79.6754 1 1 0
0.129824 79.6754 79.6754 1 1 0
0.129828 79.6754 79.6754 1 1 0
0.129832 79.6754 79.6754 1 1 0
0.129836 79.6754 79.6754 1 1 0
0.12984 79.6754 79.6754 1 1 0
0.129844 79.6754 79.6754 1 1 0
0.129848 79.6754 79.6754 1 1 0
0.129851 79.6754 79.6754 1 1 0
0.129855 79.6753 79.6753 1 1 0
0.129859 79.6753 79.6753 1 1 0
0.129863 79.6753 79.6753 1 1 0
0.129867 79.6753 79.6753 1 1 0
0.129871 79.6753 79.6753 1 1 0
0.129875 79.6753 79.6753 1 1 0
0.129879 79.6753 79.6753 1 1 0
0.129883 79.6753 79.6753 1 1 0
0.129887 79.6753 79.6753 1 1 0
0.129891 79.6752 79.6752 1 1 0
0.129895 79.6752 79.6752 1 1 0
0.129899 79.6752 79.6752 1 1 0
0.129903 79.6752 79.6752 1 1 0
0.129907 79.6752 79.6752 1 1 0
0.129911 79.6752 79.6752 1 1 0
0.129915 79.6752 79.6752 1 1 0
0.129919 79.6752 79.6752 1 1 0
0.129923 79.6752 79.6752 1 1 0
0.129927 79.6752 79.6752 1 1 0
0.129931 79.6751 79.6751 1 1 0
0.129935 79.6751 79.6751 1 1 0
0.129939 79.6751 79.6751 1 1 0
0.129943 79.6751 79.6751 1 1 0
0.129947 79.6751 79.6751 1 1 0
0.129951 79.6751 79.6751 1 1 0
0.129955 79.6751 79.6751 1 1 0
0.129959 79.6751 79.6751 1 1 0
0.129963 79.6751 79.6751 1 1 0
0.129967 79.675 79.675 1 1 0
0.12997 79.675 79.675 1 1 0
0.129974 79.675 79.675 1 1 0
0.129978 79.675 79.675 1 1 0
0.129982 79.675 79.675 1 1 0
0.129986 79.675 79.675 1 1 0
0.12999 79.675 79.675 1 1 0
0.129994 79.675 79.675 1 1 0
0.129998 79.675 79.675 1 1 0
0.130002 79.675 79.675 1 1 0
0.130006 79.6749 79.6749 1 1 0
0.13001 79.6749 79.6749 1 1 0
0.130014 79.6749 79.6749 1 1 0
0.130018 79.6749 79.6749 1 1 0
0.130022 79.6749 79.6749 1 1 0
0.130026 79.6749 79.6749 1 1 0
0.13003 79.6749 79.6749 1 1 0
0.130034 79.6749 79.6749 1 1 0
0.130038 79.6749 79.6749 1 1 0
0.130042 79.6748 79.6748 1 1 0
0.130046 79.6748 79.6748 1 1 0
0.13005 79.6748 79.6748 1 1 0
0.130054 79.6748 79.6748 1 1 0
0.130058 79.6748 79.6748 1 1 0
0.130062 79.6748 79.6748 1 1 0
0.130066 79.6748 79.6748 1 1 0
0.13007 79.6748 79.6748 1 1 0
0.130074 79.6748 79.6748 1 1 0
0.130078 79.6748 79.6748 1 1 0
0.130082 79.6747 79.6747 1 1 0
0.130086 79.6747 79.6747 1 1 0
0.13009 79.6747 79.6747 1 1 0
0.130094 79.6747 79.6747 1 1 0
0.130098 79.6747 79.6747 1 1 0
0.130102 79.6747 79.6747 1 1 0
0.130106 79.6747 79.6747 1 1 0
0.13011 79.6747 79.6747 1 1 0
0.130114 79.6747 79.6747 1 1 0
0.130118 79.6747 79.6747 1 1 0
0.130122 79.6746 79.6746 1 1 0
0.130126 79.6746 79.6746 1 1 0
0.13013 79.6746 79.6746 1 1 0
0.130134 79.6746 79.6746 1 1 0
0.130138 79.6746 79.6746 1 1 0
0.130142 79.6746 79.6746 1 1 0
0.130146 79.6746 79.6746 1 1 0
0.13015 79.6746 79.6746 1 1 0
0.130154 79.6746 79.6746 1 1 0
0.130158 79.6745 79.6745 1 1 0
0.130162 79.6745 79.6745 1 1 0
0.130166 79.6745 79.6745 1 1 0
0.13017 79.6745 79.6745 1 1 0
0.130174 79.6745 79.6745 1 1 0
0.130178 79.6745 79.6745 1 1 0
0.130182 79.6745 79.6745 1 1 0
0.130186 79.6745 79.6745 1 1 0
0.13019 79.6745 79.6745 1 1 0
0.130194 79.6745 79.6745 1 1 0
0.130198 79.6744 79.6744 1 1 0
0.130202 79.6744 79.6744 1 1 0
0.130206 79.6744 79.6744 1 1 0
0.13021 79.6744 79.6744 1 1 0
0.130214 79.6744 79.6744 1 1 0
0.130218 79.6744 79.6744 1 1 0
0.130222 79.6744 79.6744 1 1 0
0.130226 79.6744 79.6744 1 1 0
0.13023 79.6744 79.6744 1 1 0
0.130234 79.6743 79.6743 1 1 0
0.130238 79.6743 79.6743 1 1 0
0.130242 79.6743 79.6743 1 1 0
0.130246 79.6743 79.6743 1 1 0
0.13025 79.6743 79.6743 1 1 0
0.130254 79.6743 79.6743 1 1 0
0.130258 79.6743 79.6743 1 1 0
0.130262 79.6743 79.6743 1 1 0
0.130266 79.6743 79.6743 1 1 0
0.13027 79.6743 79.6743 1 1 0
0.130274 79.6742 79.6742 1 1 0
0.130278 79.6742 79.6742 1 1 0
0.130282 79.6742 79.6742 1 1 0
0.130286 79.6742 79.6742 1 1 0
0.13029 79.6742 79.6742 1 1 0
0.130294 79.6742 79.6742 1 1 0
0.130298 79.6742 79.6742 1 1 0
0.130302 79.6742 79.6742 1 1 0
0.130306 79.6742 79.6742 1 1 0
0.13031 79.6741 79.6741 1 1 0
0.130314 79.6741 79.6741 1 1 0
0.130318 79.6741 79.6741 1 1 0
0.130322 79.6741 79.6741 1 1 0
0.130326 79.6741 79.6741 1 1 0
0.13033 79.6741 79.6741 1 1 0
0.130334 79.6741 79.6741 1 1 0
0.130338 79.6741 79.6741 1 1 0
0.130342 79.6741 79.6741 1 1 0
0.130346 79.6741 79.6741 1 1 0
0.13035 79.674 79.674 1 1 0
0.130354 79.674 79.674 1 1 0
0.130358 79.674 79.674 1 1 0
0.130362 79.674 79.674 1 1 0
0.130366 79.674 79.674 1 1 0
0.13037 79.674 79.674 1 1 0
0.130374 79.674 79.674 1 1 0
0.130378 79.674 79.674 1 1 0
0.130383 79.674 79.674 1 1 0
0.130387 79.6739 79.6739 1 1 0
0.130391 79.6739 79.6739 1 1 0
0.130395 79.6739 79.6739 1 1 0
0.130399 79.6739 79.6739 1 1 0
0.130403 79.6739 79.6739 1 1 0
0.130407 79.6739 79.6739 1 1 0
0.130411 79.6739 79.6739 1 1 0
0.130415 79.6739 79.6739 1 1 0
0.130419 79.6739 79.6739 1 1 0
0.130423 79.6739 79.6739 1 1 0
0.130427 79.6738 79.6738 1 1 0
0.130431 79.6738 79.6738 1 1 0
0.130435 79.6738 79.6738 1 1 0
0.130439 79.6738 79.6738 1 1 0
0.130443 79.6738 79.6738 1 1 0
0.130447 79.6738 79.6738 1 1 0
0.130451 79.6738 79.6738 1 1 0
0.130455 79.6738 79.6738 1 1 0
0.130459 79.6738 79.6738 1 1 0
0.130463 79.6737 79.6737 1 1 0
0.130467 79.6737 79.6737 1 1 0
0.130471 79.6737 79.6737 1 1 0
0.130475 79.6737 79.6737 1 1 0
0.130479 79.6737 79.6737 1 1 0
0.130483 79.6737 79.6737 1 1 0
0.130487 79.6737 79.6737 1 1 0
0.130491 79.6737 79.6737 1 1 0
0.130495 79.6737 79.6737 1 1 0
0.130499 79.6737 79.6737 1 1 0
0.130504 79.6736 79.6736 1 1 0
0.130508 79.6736 79.6736 1 1 0
0.130512 79.6736 79.6736 1 1 0
0.130516 79.6736 79.6736 1 1 0
0.13052 79.6736 79.6736 1 1 0
0.130524 79.6736 79.6736 1 1 0
0.130528 79.6736 79.6736 1 1 0
0.130532 79.6736 79.6736 1 1 0
0.130536 79.6736 79.6736 1 1 0
0.13054 79.6735 79.6735 1 1 0
0.130544 79.6735 79.6735 1 1 0
0.130548 79.6735 79.6735 1 1 0
0.130552 79.6735 79.6735 1 1 0
0.130556 79.6735 79.6735 1 1 0
0.13056 79.6735 79.6735 1 1 0
0.130564 79.6735 79.6735 1 1 0
0.130568 79.6735 79.6735 1 1 0
0.130572 79.6735 79.6735 1 1 0
0.130576 79.6735 79.6735 1 1 0
0.13058 79.6734 79.6734 1 1 0
0.130584 79.6734 79.6734 1 1 0
0.130588 79.6734 79.6734 1 1 0
0.130593 79.6734 79.6734 1 1 0
0.130597 79.6734 79.6734 1 1 0
0.130601 79.6734 79.6734 1 1 0
0.130605 79.6734 79.6734 1 1 0
0.130609 79.6734 79.6734 1 1 0
0.130613 79.6734 79.6734 1 1 0
0.130617 79.6733 79.6733 1 1 0
0.130621 79.6733 79.6733 1 1 0
0.130625 79.6733 79.6733 1 1 0
0.130629 79.6733 79.6733 1 1 0
0.130633 79.6733 79.6733 1 1 0
0.130637 79.6733 79.6733 1 1 0
0.130641 79.6733 79.6733 1 1 0
0.130645 79.6733 79.6733 1 1 0
0.130649 79.6733 79.6733 1 1 0
0.130653 79.6733 79.6733 1 1 0
0.130657 79.6732 79.6732 1 1 0
0.130662 79.6732 79.6732 1 1 0
0.130666 79.6732 79.6732 1 1 0
0.13067 79.6732 79.6732 1 1 0
0.130674 79.6732 79.6732 1 1 0
0.130678 79.6732 79.6732 1 1 0
0.130682 79.6732 79.6732 1 1 0
0.130686 79.6732 79.6732 1 1 0
0.13069 79.6732 79.6732 1 1 0
0.130694 79.6732 79.6732 1 1 0
0.130698 79.6731 79.6731 1 1 0
0.130702 79.6731 79.6731 1 1 0
0.130706 79.6731 79.6731 1 1 0
0.13071 79.6731 79.6731 1 1 0
0.130714 79.6731 79.6731 1 1 0
0.130718 79.6731 79.6731 1 1 0
0.130722 79.6731 79.6731 1 1 0
0.130727 79.6731 79.6731 1 1 0
0.130731 79.6731 79.6731 1 1 0
0.130735 79.673 79.673 1 1 0
0.130739 79.673 79.673 1 1 0
0.130743 79.673 79.673 1 1 0
0.130747 79.673 79.673 1 1 0
0.130751 79.673 79.673 1 1 0
0.130755 79.673 79.673 1 1 0
0.130759 79.673 79.673 1 1 0
0.130763 79.673 79.673 1 1 0
0.130767 79.673 79.673 1 1 0
0.130771 79.673 79.673 1 1 0
0.130775 79.6729 79.6729 1 1 0
0.13078 79.6729 79.6729 1 1 0
0.130784 79.6729 79.6729 1 1 0
0.130788 79.6729 79.6729 1 1 0
0.130792 79.6729 79.6729 1 1 0
0.130796 79.6729 79.6729 1 1 0
0.1308 79.6729 79.6729 1 1 0
0.130804 79.6729 79.6729 1 1 0
0.130808 79.6729 79.6729 1 1 0
0.130812 79.6728 79.6728 1 1 0
0.130816 79.6728 79.6728 1 1 0
0.13082 79.6728 79.6728 1 1 0
0.130824 79.6728 79.6728 1 1 0
0.130828 79.6728 79.6728 1 1 0
0.130833 79.6728 79.6728 1 1 0
0.130837 79.6728 79.6728 1 1 0
0.130841 79.6728 79.6728 1 1 0
0.130845 79.6728 79.6728 1 1 0
0.130849 79.6728 79.6728 1 1 0
0.130853 79.6727 79.6727 1 1 0
0.130857 79.6727 79.6727 1 1 0
0.130861 79.6727 79.6727 1 1 0
0.130865 79.6727 79.6727 1 1 0
0.130869 79.6727 79.6727 1 1 0
0.130873 79.6727 79.6727 1 1 0
0.130877 79.6727 79.6727 1 1 0
0.130882 79.6727 79.6727 1 1 0
0.130886 79.6727 79.6727 1 1 0
0.13089 79.6726 79.6726 1 1 0
0.130894 79.6726 79.6726 1 1 0
0.130898 79.6726 79.6726 1 1 0
0.130902 79.6726 79.6726 1 1 0
0.130906 79.6726 79.6726 1 1 0
0.13091 79.6726 79.6726 1 1 0
0.130914 79.6726 79.6726 1 1 0
0.130918 79.6726 79.6726 1 1 0
0.130922 79.6726 79.6726 1 1 0
0.130927 79.6726 79.6726 1 1 0
0.130931 79.6725 79.6725 1 1 0
0.130935 79.6725 79.6725 1 1 0
0.130939 79.6725 79.6725 1 1 0
0.130943 79.6725 79.6725 1 1 0
0.130947 79.6725 79.6725 1 1 0
0.130951 79.6725 79.6725 1 1 0
0.130955 79.6725 79.6725 1 1 0
0.130959 79.6725 79.6725 1 1 0
0.130963 79.6725 79.6725 1 1 0
0.130968 79.6724 79.6724 1 1 0
0.130972 79.6724 79.6724 1 1 0
0.130976 79.6724 79.6724 1 1 0
0.13098 79.6724 79.6724 1 1 0
0.130984 79.6724 79.6724 1 1 0
0.130988 79.6724 79.6724 1 1 0
0.130992 79.6724 79.6724 1 1 0
0.130996 79.6724 79.6724 1 1 0
0.131 79.6724 79.6724 1 1 0
0.131004 79.6724 79.6724 1 1 0
0.131009 79.6723 79.6723 1 1 0
0.131013 79.6723 79.6723 1 1 0
0.131017 79.6723 79.6723 1 1 0
0.131021 79.6723 79.6723 1 1 0
0.131025 79.6723 79.6723 1 1 0
0.131029 79.6723 79.6723 1 1 0
0.131033 79.6723 79.6723 1 1 0
0.131037 79.6723 79.6723 1 1 0
0.131041 79.6723 79.6723 1 1 0
0.131046 79.6722 79.6722 1 1 0
0.13105 79.6722 79.6722 1 1 0
0.131054 79.6722 79.6722 1 1 0
0.131058 79.6722 79.6722 1 1 0
0.131062 79.6722 79.6722 1 1 0
0.131066 79.6722 79.6722 1 1 0
0.13107 79.6722 79.6722 1 1 0
0.131074 79.6722 79.6722 1 1 0
0.131078 79.6722 79.6722 1 1 0
0.131083 79.6722 79.6722 1 1 0
0.131087 79.6721 79.6721 1 1 0
0.131091 79.6721 79.6721 1 1 0
0.131095 79.6721 79.6721 1 1 0
0.131099 79.6721 79.6721 1 1 0
0.131103 79.6721 79.6721 1 1 0
0.131107 79.6721 79.6721 1 1 0
0.131111 79.6721 79.6721 1 1 0
0.131116 79.6721 79.6721 1 1 0
0.13112 79.6721 79.6721 1 1 0
0.131124 79.6721 79.6721 1 1 0
0.131128 79.672 79.672 1 1 0
0.131132 79.672 79.672 1 1 0
0.131136 79.672 79.672 1 1 0
0.13114 79.672 79.672 1 1 0
0.131144 79.672 79.672 1 1 0
0.131148 79.672 79.672 1 1 0
0.131153 79.672 79.672 1 1 0
0.131157 79.672 79.672 1 1 0
0.131161 79.672 79.672 1 1 0
0.131165 79.6719 79.6719 1 1 0
0.131169 79.6719 79.6719 1 1 0
0.131173 79.6719 79.6719 1 1 0
0.131177 79.6719 79.6719 1 1 0
0.131181 79.6719 79.6719 1 1 0
0.131186 79.6719 79.6719 1 1 0
0.13119 79.6719 79.6719 1 1 0
0.131194 79.6719 79.6719 1 1 0
0.131198 79.6719 79.6719 1 1 0
0.131202 79.6719 79.6719 1 1 0
0.131206 79.6718 79.6718 1 1 0
0.13121 79.6718 79.6718 1 1 0
0.131215 79.6718 79.6718 1 1 0
0.131219 79.6718 79.6718 1 1 0
0.131223 79.6718 79.6718 1 1 0
0.131227 79.6718 79.6718 1 1 0
0.131231 79.6718 79.6718 1 1 0
0.131235 79.6718 79.6718 1 1 0
0.131239 79.6718 79.6718 1 1 0
0.131243 79.6717 79.6717 1 1 0
0.131248 79.6717 79.6717 1 1 0
0.131252 79.6717 79.6717 1 1 0
0.131256 79.6717 79.6717 1 1 0
0.13126 79.6717 79.6717 1 1 0
0.131264 79.6717 79.6717 1 1 0
0.131268 79.6717 79.6717 1 1 0
0.131272 79.6717 79.6717 1 1 0
0.131277 79.6717 79.6717 1 1 0
0.131281 79.6717 79.6717 1 1 0
0.131285 79.6716 79.6716 1 1 0
0.131289 79.6716 79.6716 1 1 0
0.131293 79.6716 79.6716 1 1 0
0.131297 79.6716 79.6716 1 1 0
0.131301 79.6716 79.6716 1 1 0
0.131306 79.6716 79.6716 1 1 0
0.13131 79.6716 79.6716 1 1 0
0.131314 79.6716 79.6716 1 1 0
0.131318 79.6716 79.6716 1 1 0
0.131322 79.6715 79.6715 1 1 0
0.131326 79.6715 79.6715 1 1 0
0.13133 79.6715 79.6715 1 1 0
0.131335 79.6715 79.6715 1 1 0
0.131339 79.6715 79.6715 1 1 0
0.131343 79.6715 79.6715 1 1 0
0.131347 79.6715 79.6715 1 1 0
0.131351 79.6715 79.6715 1 1 0
0.131355 79.6715 79.6715 1 1 0
0.131359 79.6715 79.6715 1 1 0
0.131364 79.6714 79.6714 1 1 0
0.131368 79.6714 79.6714 1 1 0
0.131372 79.6714 79.6714 1 1 0
0.131376 79.6714 79.6714 1 1 0
0.13138 79.6714 79.6714 1 1 0
0.131384 79.6714 79.6714 1 1 0
0.131389 79.6714 79.6714 1 1 0
0.131393 79.6714 79.6714 1 1 0
0.131397 79.6714 79.6714 1 1 0
0.131401 79.6713 79.6713 1 1 0
0.131405 79.6713 79.6713 1 1 0
0.131409 79.6713 79.6713 1 1 0
0.131414 79.6713 79.6713 1 1 0
0.131418 79.6713 79.6713 1 1 0
0.131422 79.6713 79.6713 1 1 0
0.131426 79.6713 79.6713 1 1 0
0.13143 79.6713 79.6713 1 1 0
0.131434 79.6713 79.6713 1 1 0
0.131438 79.6713 79.6713 1 1 0
0.131443 79.6712 79.6712 1 1 0
0.131447 79.6712 79.6712 1 1 0
0.131451 79.6712 79.6712 1 1 0
0.131455 79.6712 79.6712 1 1 0
0.131459 79.6712 79.6712 1 1 0
0.131463 79.6712 79.6712 1 1 0
0.131468 79.6712 79.6712 1 1 0
0.131472 79.6712 79.6712 1 1 0
0.131476 79.6712 79.6712 1 1 0
0.13148 79.6712 79.6712 1 1 0
0.131484 79.6711 79.6711 1 1 0
0.131488 79.6711 79.6711 1 1 0
0.131493 79.6711 79.6711 1 1 0
0.131497 79.6711 79.6711 1 1 0
0.131501 79.6711 79.6711 1 1 0
0.131505 79.6711 79.6711 1 1 0
0.131509 79.6711 79.6711 1 1 0
0.131513 79.6711 79.6711 1 1 0
0.131518 79.6711 79.6711 1 1 0
0.131522 79.671 79.671 1 1 0
0.131526 79.671 79.671 1 1 0
0.13153 79.671 79.671 1 1 0
0.131534 79.671 79.671 1 1 0
0.131539 79.671 79.671 1 1 0
0.131543 79.671 79.671 1 1 0
0.131547 79.671 79.671 1 1 0
0.131551 79.671 79.671 1 1 0
0.131555 79.671 79.671 1 1 0
0.131559 79.671 79.671 1 1 0
0.131564 79.6709 79.6709 1 1 0
0.131568 79.6709 79.6709 1 1 0
0.131572 79.6709 79.6709 1 1 0
0.131576 79.6709 79.6709 1 1 0
0.13158 79.6709 79.6709 1 1 0
0.131584 79.6709 79.6709 1 1 0
0.131589 79.6709 79.6709 1 1 0
0.131593 79.6709 79.6709 1 1 0
0.131597 79.6709 79.6709 1 1 0
0.131601 79.6708 79.6708 1 1 0
0.131605 79.6708 79.6708 1 1 0
0.13161 79.6708 79.6708 1 1 0
0.131614 79.6708 79.6708 1 1 0
0.131618 79.6708 79.6708 1 1 0
0.131622 79.6708 79.6708 1 1 0
0.131626 79.6708 79.6708 1 1 0
0.13163 79.6708 79.6708 1 1 0
0.131635 79.6708 79.6708 1 1 0
0.131639 79.6708 79.6708 1 1 0
0.131643 79.6707 79.6707 1 1 0
0.131647 79.6707 79.6707 1 1 0
0.131651 79.6707 79.6707 1 1 0
0.131656 79.6707 79.6707 1 1 0
0.13166 79.6707 79.6707 1 1 0
0.131664 79.6707 79.6707 1 1 0
0.131668 79.6707 79.6707 1 1 0
0.131672 79.6707 79.6707 1 1 0
0.131677 79.6707 79.6707 1 1 0
0.131681 79.6706 79.6706 1 1 0
0.131685 79.6706 79.6706 1 1 0
0.131689 79.6706 79.6706 1 1 0
0.131693 79.6706 79.6706 1 1 0
0.131698 79.6706 79.6706 1 1 0
0.131702 79.6706 79.6706 1 1 0
0.131706 79.6706 79.6706 1 1 0
0.13171 79.6706 79.6706 1 1 0
0.131714 79.6706 79.6706 1 1 0
0.131719 79.6706 79.6706 1 1 0
0.131723 79.6705 79.6705 1 1 0
0.131727 79.6705 79.6705 1 1 0
0.131731 79.6705 79.6705 1 1 0
0.131735 79.6705 79.6705 1 1 0
0.13174 79.6705 79.6705 1 1 0
0.131744 79.6705 79.6705 1 1 0
0.131748 79.6705 79.6705 1 1 0
0.131752 79.6705 79.6705 1 1 0
0.131756 79.6705 79.6705 1 1 0
0.131761 79.6704 79.6704 1 1 0
0.131765 79.6704 79.6704 1 1 0
0.131769 79.6704 79.6704 1 1 0
0.131773 79.6704 79.6704 1 1 0
0.131777 79.6704 79.6704 1 1 0
0.131782 79.6704 79.6704 1 1 0
0.131786 79.6704 79.6704 1 1 0
0.13179 79.6704 79.6704 1 1 0
0.131794 79.6704 79.6704 1 1 0
0.131798 79.6704 79.6704 1 1 0
0.131803 79.6703 79.6703 1 1 0
0.131807 79.6703 79.6703 1 1 0
0.131811 79.6703 79.6703 1 1 0
0.131815 79.6703 79.6703 1 1 0
0.131819 79.6703 79.6703 1 1 0
0.131824 79.6703 79.6703 1 1 0
0.131828 79.6703 79.6703 1 1 0
0.131832 79.6703 79.6703 1 1 0
0.131836 79.6703 79.6703 1 1 0
0.131841 79.6703 79.6703 1 1 0
0.131845 79.6702 79.6702 1 1 0
0.131849 79.6702 79.6702 1 1 0
0.131853 79.6702 79.6702 1 1 0
0.131857 79.6702 79.6702 1 1 0
0.131862 79.6702 79.6702 1 1 0
0.131866 79.6702 79.6702 1 1 0
0.13187 79.6702 79.6702 1 1 0
0.131874 79.6702 79.6702 1 1 0
0.131878 79.6702 79.6702 1 1 0
0.131883 79.6701 79.6701 1 1 0
0.131887 79.6701 79.6701 1 1 0
0.131891 79.6701 79.6701 1 1 0
0.131895 79.6701 79.6701 1 1 0
0.1319 79.6701 79.6701 1 1 0
0.131904 79.6701 79.6701 1 1 0
0.131908 79.6701 79.6701 1 1 0
0.131912 79.6701 79.6701 1 1 0
0.131916 79.6701 79.6701 1 1 0
0.131921 79.6701 79.6701 1 1 0
0.131925 79.67 79.67 1 1 0
0.131929 79.67 79.67 1 1 0
0.131933 79.67 79.67 1 1 0
0.131938 79.67 79.67 1 1 0
0.131942 79.67 79.67 1 1 0
0.131946 79.67 79.67 1 1 0
0.13195 79.67 79.67 1 1 0
0.131955 79.67 79.67 1 1 0
0.131959 79.67 79.67 1 1 0
0.131963 79.6699 79.6699 1 1 0
0.131967 79.6699 79.6699 1 1 0
0.131971 79.6699 79.6699 1 1 0
0.131976 79.6699 79.6699 1 1 0
0.13198 79.6699 79.6699 1 1 0
0.131984 79.6699 79.6699 1 1 0
0.131988 79.6699 79.6699 1 1 0
0.131993 79.6699 79.6699 1 1 0
0.131997 79.6699 79.6699 1 1 0
0.132001 79.6699 79.6699 1 1 0
0.132005 79.6698 79.6698 1 1 0
0.13201 79.6698 79.6698 1 1 0
0.132014 79.6698 79.6698 1 1 0
0.132018 79.6698 79.6698 1 1 0
0.132022 79.6698 79.6698 1 1 0
0.132027 79.6698 79.6698 1 1 0
0.132031 79.6698 79.6698 1 1 0
0.132035 79.6698 79.6698 1 1 0
0.132039 79.6698 79.6698 1 1 0
0.132043 79.6697 79.6697 1 1 0
0.132048 79.6697 79.6697 1 1 0
0.132052 79.6697 79.6697 1 1 0
0.132056 79.6697 79.6697 1 1 0
0.13206 79.6697 79.6697 1 1 0
0.132065 79.6697 79.6697 1 1 0
0.132069 79.6697 79.6697 1 1 0
0.132073 79.6697 79.6697 1 1 0
0.132077 79.6697 79.6697 1 1 0
0.132082 79.6697 79.6697 1 1 0
0.132086 79.6696 79.6696 1 1 0
0.13209 79.6696 79.6696 1 1 0
0.132094 79.6696 79.6696 1 1 0
0.132099 79.6696 79.6696 1 1 0
0.132103 79.6696 79.6696 1 1 0
0.132107 79.6696 79.6696 1 1 0
0.132111 79.6696 79.6696 1 1 0
0.132116 79.6696 79.6696 1 1 0
0.13212 79.6696 79.6696 1 1 0
0.132124 79.6696 79.6696 1 1 0
0.132128 79.6695 79.6695 1 1 0
0.132133 79.6695 79.6695 1 1 0
0.132137 79.6695 79.6695 1 1 0
0.132141 79.6695 79.6695 1 1 0
0.132145 79.6695 79.6695 1 1 0
