0.160401 42.9244 42.9244 2 1 0
0.160342 42.7991 42.7991 2 1 0
0.160283 42.674 42.674 2 1 0
0.160223 42.5491 42.5491 2 1 0
0.160161 42.4243 42.4243 2 1 0
0.160099 42.2997 42.2997 2 1 0
0.160036 42.1752 42.1752 2 1 0
0.159971 42.0508 42.0508 2 1 0
0.159906 41.9267 41.9267 2 1 0
0.159839 41.8026 41.8026 2 1 0
0.159771 41.6788 41.6788 2 1 0
0.159703 41.5551 41.5551 2 1 0
0.159633 41.4315 41.4315 2 1 0
0.159562 41.3081 41.3081 2 1 0
0.15949 41.1849 41.1849 2 1 0
0.159417 41.0618 41.0618 2 1 0
0.159343 40.9388 40.9388 2 1 0
0.159267 40.8161 40.8161 2 1 0
0.159191 40.6934 40.6934 2 1 0
0.159113 40.571 40.571 2 1 0
0.159034 40.4486 40.4486 2 1 0
0.158955 40.3265 40.3265 2 1 0
0.158873 40.2045 40.2045 2 1 0
0.158791 40.0826 40.0826 2 1 0
0.158708 39.9609 39.9609 2 1 0
0.158623 39.8393 39.8393 2 1 0
0.158537 39.718 39.718 2 1 0
0.15845 39.5967 39.5967 2 1 0
0.158362 39.4756 39.4756 2 1 0
0.158272 39.3547 39.3547 2 1 0
0.158181 39.2339 39.2339 2 1 0
0.158089 39.1133 39.1133 2 1 0
0.157996 38.9928 38.9928 2 1 0
0.157901 38.8725 38.8725 2 1 0
0.157805 38.7523 38.7523 2 1 0
0.157708 38.6323 38.6323 2 1 0
0.157609 38.5124 38.5124 2 1 0
0.15751 38.3927 38.3927 2 1 0
0.157408 38.2732 38.2732 2 1 0
0.157306 38.1538 38.1538 2 1 0
0.157202 38.0345 38.0345 2 1 0
0.157097 37.9154 37.9154 2 1 0
0.15699 37.7965 37.7965 2 1 0
0.156882 37.6777 37.6777 2 1 0
0.156773 37.5591 37.5591 2 1 0
0.156662 37.4406 37.4406 2 1 0
0.156549 37.3223 37.3223 2 1 0
0.156436 37.2041 37.2041 2 1 0
0.156321 37.0861 37.0861 2 1 0
0.156204 36.9682 36.9682 2 1 0
0.156086 36.8505 36.8505 2 1 0
0.155966 36.7329 36.7329 2 1 0
0.155845 36.6155 36.6155 2 1 0
0.155723 36.4983 36.4983 2 1 0
0.155599 36.3812 36.3812 2 1 0
0.155473 36.2642 36.2642 2 1 0
0.155346 36.1474 36.1474 2 1 0
0.155217 36.0308 36.0308 2 1 0
0.155087 35.9143 35.9143 2 1 0
0.154955 35.7979 35.7979 2 1 0
0.154821 35.6817 35.6817 2 1 0
0.154686 35.5657 35.5657 2 1 0
0.154549 35.4498 35.4498 2 1 0
0.154411 35.3341 35.3341 2 1 0
0.154271 35.2185 35.2185 2 1 0
0.154129 35.1031 35.1031 2 1 0
0.153986 34.9878 34.9878 2 1 0
0.153841 34.8727 34.8727 2 1 0
0.153694 34.7577 34.7577 2 1 0
0.153545 34.6429 34.6429 2 1 0
0.153395 34.5282 34.5282 2 1 0
0.153243 34.4137 34.4137 2 1 0
0.153089 34.2993 34.2993 2 1 0
0.152933 34.1851 34.1851 2 1 0
0.152776 34.071 34.071 2 1 0
0.152617 33.9571 33.9571 2 1 0
0.152456 33.8434 33.8434 2 1 0
0.152293 33.7298 33.7298 2 1 0
0.152128 33.6163 33.6163 2 1 0
0.151961 33.503 33.503 2 1 0
0.151792 33.3899 33.3899 2 1 0
0.151622 33.2769 33.2769 2 1 0
0.151449 33.164 33.164 2 1 0
0.151275 33.0514 33.0514 2 1 0
0.151099 32.9388 32.9388 2 1 0
0.15092 32.8264 32.8264 2 1 0
0.15074 32.7142 32.7142 2 1 0
0.150557 32.6021 32.6021 2 1 0
0.150373 32.4902 32.4902 2 1 0
0.150186 32.3784 32.3784 2 1 0
0.149998 32.2668 32.2668 2 1 0
0.149807 32.1553 32.1553 2 1 0
0.149614 32.044 32.044 2 1 0
0.149419 31.9328 31.9328 2 1 0
0.149222 31.8218 31.8218 2 1 0
0.149022 31.7109 31.7109 2 1 0
0.148821 31.6002 31.6002 2 1 0
0.148617 31.4896 31.4896 2 1 0
0.148411 31.3792 31.3792 2 1 0
0.148203 31.2689 31.2689 2 1 0
0.147992 31.1588 31.1588 2 1 0
0.147779 31.0489 31.0489 2 1 0
0.147564 30.9391 30.9391 2 1 0
0.147347 30.8294 30.8294 2 1 0
0.147127 30.7199 30.7199 2 1 0
0.146905 30.6106 30.6106 2 1 0
0.14668 30.5014 30.5014 2 1 0
0.146453 30.3923 30.3923 2 1 0
0.146223 30.2834 30.2834 2 1 0
0.145991 30.1747 30.1747 2 1 0
0.145757 30.0661 30.0661 2 1 0
0.14552 29.9576 29.9576 2 1 0
0.14528 29.8493 29.8493 2 1 0
0.145038 29.7412 29.7412 2 1 0
0.144793 29.6332 29.6332 2 1 0
0.144545 29.5254 29.5254 2 1 0
0.144295 29.4177 29.4177 2 1 0
0.144043 29.3102 29.3102 2 1 0
0.143787 29.2028 29.2028 2 1 0
0.143529 29.0956 29.0956 2 1 0
0.143268 28.9885 28.9885 2 1 0
0.143004 28.8816 28.8816 2 1 0
0.142738 28.7748 28.7748 2 1 0
0.142469 28.6682 28.6682 2 1 0
0.142196 28.5617 28.5617 2 1 0
0.141921 28.4554 28.4554 2 1 0
0.141643 28.3493 28.3493 2 1 0
0.141362 28.2433 28.2433 2 1 0
0.141079 28.1374 28.1374 2 1 0
0.140792 28.0317 28.0317 2 1 0
0.140502 27.9261 27.9261 2 1 0
0.140209 27.8207 27.8207 2 1 0
0.139913 27.7155 27.7155 2 1 0
0.139614 27.6104 27.6104 2 1 0
0.139311 27.5054 27.5054 2 1 0
0.139006 27.4007 27.4007 2 1 0
0.138697 27.296 27.296 2 1 0
0.138385 27.1915 27.1915 2 1 0
0.13807 27.0872 27.0872 2 1 0
0.137751 26.983 26.983 2 1 0
0.137429 26.879 26.879 2 1 0
0.137104 26.7751 26.7751 2 1 0
0.136775 26.6714 26.6714 2 1 0
0.136443 26.5678 26.5678 2 1 0
0.136107 26.4644 26.4644 2 1 0
0.135768 26.3611 26.3611 2 1 0
0.135426 26.258 26.258 2 1 0
0.135079 26.155 26.155 2 1 0
0.134729 26.0522 26.0522 2 1 0
0.134376 25.9496 25.9496 2 1 0
0.134019 25.8471 25.8471 2 1 0
0.133658 25.7447 25.7447 2 1 0
0.133293 25.6425 25.6425 2 1 0
0.132924 25.5405 25.5405 2 1 0
0.132552 25.4386 25.4386 2 1 0
0.132176 25.3368 25.3368 2 1 0
0.131795 25.2353 25.2353 2 1 0
0.131411 25.1338 25.1338 2 1 0
0.131023 25.0325 25.0325 2 1 0
0.130631 24.9314 24.9314 2 1 0
0.130234 24.8304 24.8304 2 1 0
0.129834 24.7296 24.7296 2 1 0
0.129429 24.6289 24.6289 2 1 0
0.12902 24.5284 24.5284 2 1 0
0.128607 24.4281 24.4281 2 1 0
0.128189 24.3279 24.3279 2 1 0
0.127767 24.2278 24.2278 2 1 0
0.127341 24.1279 24.1279 2 1 0
0.12691 24.0282 24.0282 2 1 0
0.126475 23.9286 23.9286 2 1 0
0.126035 23.8291 23.8291 2 1 0
0.125591 23.7298 23.7298 2 1 0
0.125141 23.6307 23.6307 2 1 0
0.124688 23.5317 23.5317 2 1 0
0.124229 23.4329 23.4329 2 1 0
0.123766 23.3342 23.3342 2 1 0
0.123298 23.2357 23.2357 2 1 0
0.122824 23.1374 23.1374 2 1 0
0.122346 23.0392 23.0392 2 1 0
0.121863 22.9411 22.9411 2 1 0
0.121375 22.8432 22.8432 2 1 0
0.120882 22.7455 22.7455 2 1 0
0.120383 22.6479 22.6479 2 1 0
0.119879 22.5504 22.5504 2 1 0
0.11937 22.4532 22.4532 2 1 0
0.118856 22.356 22.356 2 1 0
0.118336 22.2591 22.2591 2 1 0
0.117811 22.1623 22.1623 2 1 0
0.11728 22.0656 22.0656 2 1 0
0.116744 21.9691 21.9691 2 1 0
0.116201 21.8727 21.8727 2 1 0
0.115654 21.7766 21.7766 2 1 0
0.1151 21.6805 21.6805 2 1 0
0.11454 21.5846 21.5846 2 1 0
0.113975 21.4889 21.4889 2 1 0
0.113403 21.3933 21.3933 2 1 0
0.112826 21.2979 21.2979 2 1 0
0.112242 21.2027 21.2027 2 1 0
0.111652 21.1076 21.1076 2 1 0
0.111056 21.0126 21.0126 2 1 0
0.110454 20.9178 20.9178 2 1 0
0.109845 20.8232 20.8232 2 1 0
0.109229 20.7287 20.7287 2 1 0
0.108608 20.6344 20.6344 2 1 0
0.107979 20.5402 20.5402 2 1 0
0.107344 20.4462 20.4462 2 1 0
0.106701 20.3523 20.3523 2 1 0
0.106052 20.2586 20.2586 2 1 0
0.105396 20.1651 20.1651 2 1 0
0.104733 20.0717 20.0717 2 1 0
0.104063 19.9785 19.9785 2 1 0
0.103386 19.8854 19.8854 2 1 0
0.102701 19.7925 19.7925 2 1 0
0.102009 19.6998 19.6998 2 1 0
0.101309 19.6072 19.6072 2 1 0
0.100602 19.5147 19.5147 2 1 0
0.099887 19.4224 19.4224 2 1 0
0.0991644 19.3303 19.3303 2 1 0
0.098434 19.2384 19.2384 2 1 0
0.0976956 19.1465 19.1465 2 1 0
0.0969491 19.0549 19.0549 2 1 0
0.0961945 18.9634 18.9634 2 1 0
0.0954317 18.8721 18.8721 2 1 0
0.0946605 18.7809 18.7809 2 1 0
0.0938809 18.6899 18.6899 2 1 0
0.0930927 18.599 18.599 2 1 0
0.0922959 18.5083 18.5083 2 1 0
0.0914903 18.4178 18.4178 2 1 0
0.0906758 18.3274 18.3274 2 1 0
0.0898523 18.2372 18.2372 2 1 0
0.0890198 18.1471 18.1471 2 1 0
0.088178 18.0572 18.0572 2 1 0
0.0873269 17.9675 17.9675 2 1 0
0.0864664 17.8779 17.8779 2 1 0
0.0855963 17.7885 17.7885 2 1 0
0.0847164 17.6992 17.6992 2 1 0
0.0838268 17.6101 17.6101 2 1 0
0.0829273 17.5212 17.5212 2 1 0
0.0820176 17.4324 17.4324 2 1 0
0.0810978 17.3438 17.3438 2 1 0
0.0801677 17.2553 17.2553 2 1 0
0.079227 17.167 17.167 2 1 0
0.0782758 17.0789 17.0789 2 1 0
0.0773139 16.9909 16.9909 2 1 0
0.076341 16.9031 16.9031 2 1 0
0.0753572 16.8155 16.8155 2 1 0
0.0743621 16.728 16.728 2 1 0
0.0733558 16.6406 16.6406 2 1 0
0.072338 16.5535 16.5535 2 1 0
0.0713085 16.4665 16.4665 2 1 0
0.0702673 16.3796 16.3796 2 1 0
0.0692142 16.293 16.293 2 1 0
0.068149 16.2064 16.2064 2 1 0
0.0670715 16.1201 16.1201 2 1 0
0.0659816 16.0339 16.0339 2 1 0
0.0648791 15.9479 15.9479 2 1 0
0.0637639 15.862 15.862 2 1 0
0.0626357 15.7763 15.7763 2 1 0
0.0614944 15.6908 15.6908 2 1 0
0.0603398 15.6054 15.6054 2 1 0
0.0591717 15.5202 15.5202 2 1 0
0.05799 15.4352 15.4352 2 1 0
0.0567944 15.3503 15.3503 2 1 0
0.0555848 15.2656 15.2656 2 1 0
0.0543609 15.181 15.181 2 1 0
0.0531226 15.0966 15.0966 2 1 0
0.0518697 15.0124 15.0124 2 1 0
0.0506019 14.9284 14.9284 2 1 0
0.049319 14.8445 14.8445 2 1 0
0.0480209 14.7608 14.7608 2 1 0
0.0467073 14.6772 14.6772 2 1 0
0.0453779 14.5938 14.5938 2 1 0
0.0440326 14.5106 14.5106 2 1 0
0.0426712 14.4275 14.4275 2 1 0
0.0412933 14.3447 14.3447 2 1 0
0.0398988 14.2619 14.2619 2 1 0
0.0384874 14.1794 14.1794 2 1 0
0.0370589 14.097 14.097 2 1 0
0.035613 14.0148 14.0148 2 1 0
0.0341495 13.9327 13.9327 2 1 0
0.032668 13.8508 13.8508 2 1 0
0.0311684 13.7691 13.7691 2 1 0
0.0296504 13.6876 13.6876 2 1 0
0.0281136 13.6062 13.6062 2 1 0
0.0265579 13.525 13.525 2 1 0
0.0249829 13.444 13.444 2 1 0
0.0233883 13.3631 13.3631 2 1 0
0.0217738 13.2824 13.2824 2 1 0
0.0201392 13.2019 13.2019 2 1 0
0.0184841 13.1215 13.1215 2 1 0
0.0168082 13.0413 13.0413 2 1 0
0.0151113 12.9613 12.9613 2 1 0
0.0133928 12.8815 12.8815 2 1 0
0.0116526 12.8018 12.8018 2 1 0
0.00989036 12.7223 12.7223 2 1 0
0.00810561 12.643 12.643 2 1 0
0.00629807 12.5638 12.5638 2 1 0
0.00446737 12.4848 12.4848 2 1 0
0.00261314 12.406 12.406 2 1 0
0.000735005 12.3274 12.3274 2 1 0
-0.00116741 12.2489 12.2489 2 1 0
0.103886 211.356 211.356 1 1 0
0.103886 211.356 211.356 1 1 0
0.103886 211.355 211.355 1 1 0
0.103886 211.355 211.355 1 1 0
0.103887 211.354 211.354 1 1 0
0.103888 211.351 211.351 1 1 0
0.10389 211.347 211.347 1 1 0
0.103892 211.343 211.343 1 1 0
0.103894 211.34 211.34 1 1 0
0.103896 211.336 211.336 1 1 0
0.103898 211.332 211.332 1 1 0
0.1039 211.328 211.328 1 1 0
0.103902 211.324 211.324 1 1 0
0.103904 211.32 211.32 1 1 0
0.103906 211.316 211.316 1 1 0
0.103909 211.313 211.313 1 1 0
0.103911 211.309 211.309 1 1 0
0.103913 211.305 211.305 1 1 0
0.103915 211.301 211.301 1 1 0
0.103917 211.297 211.297 1 1 0
0.103919 211.293 211.293 1 1 0
0.103921 211.289 211.289 1 1 0
0.103923 211.285 211.285 1 1 0
0.103925 211.282 211.282 1 1 0
0.103927 211.278 211.278 1 1 0
0.103929 211.274 211.274 1 1 0
0.103931 211.27 211.27 1 1 0
0.103933 211.266 211.266 1 1 0
0.103935 211.262 211.262 1 1 0
0.103937 211.258 211.258 1 1 0
0.103939 211.255 211.255 1 1 0
0.103941 211.251 211.251 1 1 0
0.103943 211.247 211.247 1 1 0
0.103945 211.243 211.243 1 1 0
0.103947 211.239 211.239 1 1 0
0.103949 211.235 211.235 1 1 0
0.103951 211.231 211.231 1 1 0
0.103953 211.228 211.228 1 1 0
0.103955 211.224 211.224 1 1 0
0.103957 211.22 211.22 1 1 0
0.103959 211.216 211.216 1 1 0
0.103961 211.212 211.212 1 1 0
0.103963 211.208 211.208 1 1 0
0.103965 211.204 211.204 1 1 0
0.103967 211.2 211.2 1 1 0
0.103969 211.197 211.197 1 1 0
0.103971 211.193 211.193 1 1 0
0.103973 211.189 211.189 1 1 0
0.103975 211.185 211.185 1 1 0
0.103977 211.181 211.181 1 1 0
0.103979 211.177 211.177 1 1 0
0.103982 211.173 211.173 1 1 0
0.103984 211.17 211.17 1 1 0
0.103986 211.166 211.166 1 1 0
0.103988 211.162 211.162 1 1 0
0.10399 211.158 211.158 1 1 0
0.103992 211.154 211.154 1 1 0
0.103994 211.15 211.15 1 1 0
0.103996 211.146 211.146 1 1 0
0.103998 211.142 211.142 1 1 0
0.104 211.139 211.139 1 1 0
0.104002 211.135 211.135 1 1 0
0.104004 211.131 211.131 1 1 0
0.104006 211.127 211.127 1 1 0
0.104008 211.123 211.123 1 1 0
0.10401 211.119 211.119 1 1 0
0.104012 211.115 211.115 1 1 0
0.104014 211.112 211.112 1 1 0
0.104016 211.108 211.108 1 1 0
0.104018 211.104 211.104 1 1 0
0.10402 211.1 211.1 1 1 0
0.104022 211.096 211.096 1 1 0
0.104024 211.092 211.092 1 1 0
0.104026 211.088 211.088 1 1 0
0.104028 211.084 211.084 1 1 0
0.10403 211.081 211.081 1 1 0
0.104032 211.077 211.077 1 1 0
0.104034 211.073 211.073 1 1 0
0.104036 211.069 211.069 1 1 0
0.104038 211.065 211.065 1 1 0
0.10404 211.061 211.061 1 1 0
0.104042 211.057 211.057 1 1 0
0.104044 211.053 211.053 1 1 0
0.104046 211.05 211.05 1 1 0
0.104049 211.046 211.046 1 1 0
0.104051 211.042 211.042 1 1 0
0.104053 211.038 211.038 1 1 0
0.104055 211.034 211.034 1 1 0
0.104057 211.03 211.03 1 1 0
0.104059 211.026 211.026 1 1 0
0.104061 211.022 211.022 1 1 0
0.104063 211.019 211.019 1 1 0
0.104065 211.015 211.015 1 1 0
0.104067 211.011 211.011 1 1 0
0.104069 211.007 211.007 1 1 0
0.104071 211.003 211.003 1 1 0
0.104073 210.999 210.999 1 1 0
0.104075 210.995 210.995 1 1 0
0.104077 210.991 210.991 1 1 0
0.104079 210.988 210.988 1 1 0
0.104081 210.984 210.984 1 1 0
0.104083 210.98 210.98 1 1 0
0.104085 210.976 210.976 1 1 0
0.104087 210.972 210.972 1 1 0
0.104089 210.968 210.968 1 1 0
0.104091 210.964 210.964 1 1 0
0.104093 210.96 210.96 1 1 0
0.104095 210.957 210.957 1 1 0
0.104097 210.953 210.953 1 1 0
0.104099 210.949 210.949 1 1 0
0.104101 210.945 210.945 1 1 0
0.104103 210.941 210.941 1 1 0
0.104105 210.937 210.937 1 1 0
0.104107 210.933 210.933 1 1 0
0.10411 210.929 210.929 1 1 0
0.104112 210.926 210.926 1 1 0
0.104114 210.922 210.922 1 1 0
0.104116 210.918 210.918 1 1 0
0.104118 210.914 210.914 1 1 0
0.10412 210.91 210.91 1 1 0
0.104122 210.906 210.906 1 1 0
0.104124 210.902 210.902 1 1 0
0.104126 210.898 210.898 1 1 0
0.104128 210.895 210.895 1 1 0
0.10413 210.891 210.891 1 1 0
0.104132 210.887 210.887 1 1 0
0.104134 210.883 210.883 1 1 0
0.104136 210.879 210.879 1 1 0
0.104138 210.875 210.875 1 1 0
0.10414 210.871 210.871 1 1 0
0.104142 210.867 210.867 1 1 0
0.104144 210.863 210.863 1 1 0
0.104146 210.86 210.86 1 1 0
0.104148 210.856 210.856 1 1 0
0.10415 210.852 210.852 1 1 0
0.104152 210.848 210.848 1 1 0
0.104154 210.844 210.844 1 1 0
0.104156 210.84 210.84 1 1 0
0.104158 210.836 210.836 1 1 0
0.10416 210.832 210.832 1 1 0
0.104162 210.829 210.829 1 1 0
0.104164 210.825 210.825 1 1 0
0.104167 210.821 210.821 1 1 0
0.104169 210.817 210.817 1 1 0
0.104171 210.813 210.813 1 1 0
0.104173 210.809 210.809 1 1 0
0.104175 210.805 210.805 1 1 0
0.104177 210.801 210.801 1 1 0
0.104179 210.798 210.798 1 1 0
0.104181 210.794 210.794 1 1 0
0.104183 210.79 210.79 1 1 0
0.104185 210.786 210.786 1 1 0
0.104187 210.782 210.782 1 1 0
0.104189 210.778 210.778 1 1 0
0.104191 210.774 210.774 1 1 0
0.104193 210.77 210.77 1 1 0
0.104195 210.766 210.766 1 1 0
0.104197 210.763 210.763 1 1 0
0.104199 210.759 210.759 1 1 0
0.104201 210.755 210.755 1 1 0
0.104203 210.751 210.751 1 1 0
0.104205 210.747 210.747 1 1 0
0.104207 210.743 210.743 1 1 0
0.104209 210.739 210.739 1 1 0
0.104211 210.735 210.735 1 1 0
0.104213 210.731 210.731 1 1 0
0.104215 210.728 210.728 1 1 0
0.104217 210.724 210.724 1 1 0
0.10422 210.72 210.72 1 1 0
0.104222 210.716 210.716 1 1 0
0.104224 210.712 210.712 1 1 0
0.104226 210.708 210.708 1 1 0
0.104228 210.704 210.704 1 1 0
0.10423 210.7 210.7 1 1 0
0.104232 210.696 210.696 1 1 0
0.104234 210.693 210.693 1 1 0
0.104236 210.689 210.689 1 1 0
0.104238 210.685 210.685 1 1 0
0.10424 210.681 210.681 1 1 0
0.104242 210.677 210.677 1 1 0
0.104244 210.673 210.673 1 1 0
0.104246 210.669 210.669 1 1 0
0.104248 210.665 210.665 1 1 0
0.10425 210.661 210.661 1 1 0
0.104252 210.658 210.658 1 1 0
0.104254 210.654 210.654 1 1 0
0.104256 210.65 210.65 1 1 0
0.104258 210.646 210.646 1 1 0
0.10426 210.642 210.642 1 1 0
0.104262 210.638 210.638 1 1 0
0.104264 210.634 210.634 1 1 0
0.104266 210.63 210.63 1 1 0
0.104268 210.626 210.626 1 1 0
0.104271 210.623 210.623 1 1 0
0.104273 210.619 210.619 1 1 0
0.104275 210.615 210.615 1 1 0
0.104277 210.611 210.611 1 1 0
0.104279 210.607 210.607 1 1 0
0.104281 210.603 210.603 1 1 0
0.104283 210.599 210.599 1 1 0
0.104285 210.595 210.595 1 1 0
0.104287 210.591 210.591 1 1 0
0.104289 210.588 210.588 1 1 0
0.104291 210.584 210.584 1 1 0
0.104293 210.58 210.58 1 1 0
0.104295 210.576 210.576 1 1 0
0.104297 210.572 210.572 1 1 0
0.104299 210.568 210.568 1 1 0
0.104301 210.564 210.564 1 1 0
0.104303 210.56 210.56 1 1 0
0.104305 210.556 210.556 1 1 0
0.104307 210.552 210.552 1 1 0
0.104309 210.549 210.549 1 1 0
0.104311 210.545 210.545 1 1 0
0.104313 210.541 210.541 1 1 0
0.104315 210.537 210.537 1 1 0
0.104317 210.533 210.533 1 1 0
0.10432 210.529 210.529 1 1 0
0.104322 210.525 210.525 1 1 0
0.104324 210.521 210.521 1 1 0
0.104326 210.517 210.517 1 1 0
0.104328 210.514 210.514 1 1 0
0.10433 210.51 210.51 1 1 0
0.104332 210.506 210.506 1 1 0
0.104334 210.502 210.502 1 1 0
0.104336 210.498 210.498 1 1 0
0.104338 210.494 210.494 1 1 0
0.10434 210.49 210.49 1 1 0
0.104342 210.486 210.486 1 1 0
0.104344 210.482 210.482 1 1 0
0.104346 210.478 210.478 1 1 0
0.104348 210.475 210.475 1 1 0
0.10435 210.471 210.471 1 1 0
0.104352 210.467 210.467 1 1 0
0.104354 210.463 210.463 1 1 0
0.104356 210.459 210.459 1 1 0
0.104358 210.455 210.455 1 1 0
0.10436 210.451 210.451 1 1 0
0.104362 210.447 210.447 1 1 0
0.104365 210.443 210.443 1 1 0
0.104367 210.439 210.439 1 1 0
0.104369 210.436 210.436 1 1 0
0.104371 210.432 210.432 1 1 0
0.104373 210.428 210.428 1 1 0
0.104375 210.424 210.424 1 1 0
0.104377 210.42 210.42 1 1 0
0.104379 210.416 210.416 1 1 0
0.104381 210.412 210.412 1 1 0
0.104383 210.408 210.408 1 1 0
0.104385 210.404 210.404 1 1 0
0.104387 210.4 210.4 1 1 0
0.104389 210.397 210.397 1 1 0
0.104391 210.393 210.393 1 1 0
0.104393 210.389 210.389 1 1 0
0.104395 210.385 210.385 1 1 0
0.104397 210.381 210.381 1 1 0
0.104399 210.377 210.377 1 1 0
0.104401 210.373 210.373 1 1 0
0.104403 210.369 210.369 1 1 0
0.104405 210.365 210.365 1 1 0
0.104407 210.361 210.361 1 1 0
0.10441 210.358 210.358 1 1 0
0.104412 210.354 210.354 1 1 0
0.104414 210.35 210.35 1 1 0
0.104416 210.346 210.346 1 1 0
0.104418 210.342 210.342 1 1 0
0.10442 210.338 210.338 1 1 0
0.104422 210.334 210.334 1 1 0
0.104424 210.33 210.33 1 1 0
0.104426 210.326 210.326 1 1 0
0.104428 210.322 210.322 1 1 0
0.10443 210.319 210.319 1 1 0
0.104432 210.315 210.315 1 1 0
0.104434 210.311 210.311 1 1 0
0.104436 210.307 210.307 1 1 0
0.104438 210.303 210.303 1 1 0
0.10444 210.299 210.299 1 1 0
0.104442 210.295 210.295 1 1 0
0.104444 210.291 210.291 1 1 0
0.104446 210.287 210.287 1 1 0
0.104448 210.283 210.283 1 1 0
0.10445 210.279 210.279 1 1 0
0.104453 210.276 210.276 1 1 0
0.104455 210.272 210.272 1 1 0
0.104457 210.268 210.268 1 1 0
0.104459 210.264 210.264 1 1 0
0.104461 210.26 210.26 1 1 0
0.104463 210.256 210.256 1 1 0
0.104465 210.252 210.252 1 1 0
0.104467 210.248 210.248 1 1 0
0.104469 210.244 210.244 1 1 0
0.104471 210.24 210.24 1 1 0
0.104473 210.236 210.236 1 1 0
0.104475 210.233 210.233 1 1 0
0.104477 210.229 210.229 1 1 0
0.104479 210.225 210.225 1 1 0
0.104481 210.221 210.221 1 1 0
0.104483 210.217 210.217 1 1 0
0.104485 210.213 210.213 1 1 0
0.104487 210.209 210.209 1 1 0
0.104489 210.205 210.205 1 1 0
0.104491 210.201 210.201 1 1 0
0.104494 210.197 210.197 1 1 0
0.104496 210.193 210.193 1 1 0
0.104498 210.19 210.19 1 1 0
0.1045 210.186 210.186 1 1 0
0.104502 210.182 210.182 1 1 0
0.104504 210.178 210.178 1 1 0
0.104506 210.174 210.174 1 1 0
0.104508 210.17 210.17 1 1 0
0.10451 210.166 210.166 1 1 0
0.104512 210.162 210.162 1 1 0
0.104514 210.158 210.158 1 1 0
0.104516 210.154 210.154 1 1 0
0.104518 210.15 210.15 1 1 0
0.10452 210.147 210.147 1 1 0
0.104522 210.143 210.143 1 1 0
0.104524 210.139 210.139 1 1 0
0.104526 210.135 210.135 1 1 0
0.104528 210.131 210.131 1 1 0
0.10453 210.127 210.127 1 1 0
0.104533 210.123 210.123 1 1 0
0.104535 210.119 210.119 1 1 0
0.104537 210.115 210.115 1 1 0
0.104539 210.111 210.111 1 1 0
0.104541 210.107 210.107 1 1 0
0.104543 210.103 210.103 1 1 0
0.104545 210.1 210.1 1 1 0
0.104547 210.096 210.096 1 1 0
0.104549 210.092 210.092 1 1 0
0.104551 210.088 210.088 1 1 0
0.104553 210.084 210.084 1 1 0
0.104555 210.08 210.08 1 1 0
0.104557 210.076 210.076 1 1 0
0.104559 210.072 210.072 1 1 0
0.104561 210.068 210.068 1 1 0
0.104563 210.064 210.064 1 1 0
0.104565 210.06 210.06 1 1 0
0.104567 210.056 210.056 1 1 0
0.104569 210.053 210.053 1 1 0
0.104572 210.049 210.049 1 1 0
0.104574 210.045 210.045 1 1 0
0.104576 210.041 210.041 1 1 0
0.104578 210.037 210.037 1 1 0
0.10458 210.033 210.033 1 1 0
0.104582 210.029 210.029 1 1 0
0.104584 210.025 210.025 1 1 0
0.104586 210.021 210.021 1 1 0
0.104588 210.017 210.017 1 1 0
0.10459 210.013 210.013 1 1 0
0.104592 210.009 210.009 1 1 0
0.104594 210.006 210.006 1 1 0
0.104596 210.002 210.002 1 1 0
0.104598 209.998 209.998 1 1 0
0.1046 209.994 209.994 1 1 0
0.104602 209.99 209.99 1 1 0
0.104604 209.986 209.986 1 1 0
0.104606 209.982 209.982 1 1 0
0.104609 209.978 209.978 1 1 0
0.104611 209.974 209.974 1 1 0
0.104613 209.97 209.97 1 1 0
0.104615 209.966 209.966 1 1 0
0.104617 209.962 209.962 1 1 0
0.104619 209.959 209.959 1 1 0
0.104621 209.955 209.955 1 1 0
0.104623 209.951 209.951 1 1 0
0.104625 209.947 209.947 1 1 0
0.104627 209.943 209.943 1 1 0
0.104629 209.939 209.939 1 1 0
0.104631 209.935 209.935 1 1 0
0.104633 209.931 209.931 1 1 0
0.104635 209.927 209.927 1 1 0
0.104637 209.923 209.923 1 1 0
0.104639 209.919 209.919 1 1 0
0.104641 209.915 209.915 1 1 0
0.104643 209.911 209.911 1 1 0
0.104646 209.908 209.908 1 1 0
0.104648 209.904 209.904 1 1 0
0.10465 209.9 209.9 1 1 0
0.104652 209.896 209.896 1 1 0
0.104654 209.892 209.892 1 1 0
0.104656 209.888 209.888 1 1 0
0.104658 209.884 209.884 1 1 0
0.10466 209.88 209.88 1 1 0
0.104662 209.876 209.876 1 1 0
0.104664 209.872 209.872 1 1 0
0.104666 209.868 209.868 1 1 0
0.104668 209.864 209.864 1 1 0
0.10467 209.86 209.86 1 1 0
0.104672 209.857 209.857 1 1 0
0.104674 209.853 209.853 1 1 0
0.104676 209.849 209.849 1 1 0
0.104678 209.845 209.845 1 1 0
0.104681 209.841 209.841 1 1 0
0.104683 209.837 209.837 1 1 0
0.104685 209.833 209.833 1 1 0
0.104687 209.829 209.829 1 1 0
0.104689 209.825 209.825 1 1 0
0.104691 209.821 209.821 1 1 0
0.104693 209.817 209.817 1 1 0
0.104695 209.813 209.813 1 1 0
0.104697 209.809 209.809 1 1 0
0.104699 209.805 209.805 1 1 0
0.104701 209.802 209.802 1 1 0
0.104703 209.798 209.798 1 1 0
0.104705 209.794 209.794 1 1 0
0.104707 209.79 209.79 1 1 0
0.104709 209.786 209.786 1 1 0
0.104711 209.782 209.782 1 1 0
0.104713 209.778 209.778 1 1 0
0.104716 209.774 209.774 1 1 0
0.104718 209.77 209.77 1 1 0
0.10472 209.766 209.766 1 1 0
0.104722 209.762 209.762 1 1 0
0.104724 209.758 209.758 1 1 0
0.104726 209.754 209.754 1 1 0
0.104728 209.75 209.75 1 1 0
0.10473 209.747 209.747 1 1 0
0.104732 209.743 209.743 1 1 0
0.104734 209.739 209.739 1 1 0
0.104736 209.735 209.735 1 1 0
0.104738 209.731 209.731 1 1 0
0.10474 209.727 209.727 1 1 0
0.104742 209.723 209.723 1 1 0
0.104744 209.719 209.719 1 1 0
0.104746 209.715 209.715 1 1 0
0.104749 209.711 209.711 1 1 0
0.104751 209.707 209.707 1 1 0
0.104753 209.703 209.703 1 1 0
0.104755 209.699 209.699 1 1 0
0.104757 209.695 209.695 1 1 0
0.104759 209.691 209.691 1 1 0
0.104761 209.688 209.688 1 1 0
0.104763 209.684 209.684 1 1 0
0.104765 209.68 209.68 1 1 0
0.104767 209.676 209.676 1 1 0
0.104769 209.672 209.672 1 1 0
0.104771 209.668 209.668 1 1 0
0.104773 209.664 209.664 1 1 0
0.104775 209.66 209.66 1 1 0
0.104777 209.656 209.656 1 1 0
0.104779 209.652 209.652 1 1 0
0.104782 209.648 209.648 1 1 0
0.104784 209.644 209.644 1 1 0
0.104786 209.64 209.64 1 1 0
0.104788 209.636 209.636 1 1 0
0.10479 209.632 209.632 1 1 0
0.104792 209.629 209.629 1 1 0
0.104794 209.625 209.625 1 1 0
0.104796 209.621 209.621 1 1 0
0.104798 209.617 209.617 1 1 0
0.1048 209.613 209.613 1 1 0
0.104802 209.609 209.609 1 1 0
0.104804 209.605 209.605 1 1 0
0.104806 209.601 209.601 1 1 0
0.104808 209.597 209.597 1 1 0
0.10481 209.593 209.593 1 1 0
0.104812 209.589 209.589 1 1 0
0.104815 209.585 209.585 1 1 0
0.104817 209.581 209.581 1 1 0
0.104819 209.577 209.577 1 1 0
0.104821 209.573 209.573 1 1 0
0.104823 209.569 209.569 1 1 0
0.104825 209.566 209.566 1 1 0
0.104827 209.562 209.562 1 1 0
0.104829 209.558 209.558 1 1 0
0.104831 209.554 209.554 1 1 0
0.104833 209.55 209.55 1 1 0
0.104835 209.546 209.546 1 1 0
0.104837 209.542 209.542 1 1 0
0.104839 209.538 209.538 1 1 0
0.104841 209.534 209.534 1 1 0
0.104843 209.53 209.53 1 1 0
0.104846 209.526 209.526 1 1 0
0.104848 209.522 209.522 1 1 0
0.10485 209.518 209.518 1 1 0
0.104852 209.514 209.514 1 1 0
0.104854 209.51 209.51 1 1 0
0.104856 209.506 209.506 1 1 0
0.104858 209.503 209.503 1 1 0
0.10486 209.499 209.499 1 1 0
0.104862 209.495 209.495 1 1 0
0.104864 209.491 209.491 1 1 0
0.104866 209.487 209.487 1 1 0
0.104868 209.483 209.483 1 1 0
0.10487 209.479 209.479 1 1 0
0.104872 209.475 209.475 1 1 0
0.104874 209.471 209.471 1 1 0
0.104877 209.467 209.467 1 1 0
0.104879 209.463 209.463 1 1 0
0.104881 209.459 209.459 1 1 0
0.104883 209.455 209.455 1 1 0
0.104885 209.451 209.451 1 1 0
0.104887 209.447 209.447 1 1 0
0.104889 209.443 209.443 1 1 0
0.104891 209.439 209.439 1 1 0
0.104893 209.435 209.435 1 1 0
0.104895 209.432 209.432 1 1 0
0.104897 209.428 209.428 1 1 0
0.104899 209.424 209.424 1 1 0
0.104901 209.42 209.42 1 1 0
0.104903 209.416 209.416 1 1 0
0.104905 209.412 209.412 1 1 0
0.104908 209.408 209.408 1 1 0
0.10491 209.404 209.404 1 1 0
0.104912 209.4 209.4 1 1 0
0.104914 209.396 209.396 1 1 0
0.104916 209.392 209.392 1 1 0
0.104918 209.388 209.388 1 1 0
0.10492 209.384 209.384 1 1 0
0.104922 209.38 209.38 1 1 0
0.104924 209.376 209.376 1 1 0
0.104926 209.372 209.372 1 1 0
0.104928 209.368 209.368 1 1 0
0.10493 209.364 209.364 1 1 0
0.104932 209.36 209.36 1 1 0
0.104934 209.357 209.357 1 1 0
0.104937 209.353 209.353 1 1 0
0.104939 209.349 209.349 1 1 0
0.104941 209.345 209.345 1 1 0
0.104943 209.341 209.341 1 1 0
0.104945 209.337 209.337 1 1 0
0.104947 209.333 209.333 1 1 0
0.104949 209.329 209.329 1 1 0
0.104951 209.325 209.325 1 1 0
0.104953 209.321 209.321 1 1 0
0.104955 209.317 209.317 1 1 0
0.104957 209.313 209.313 1 1 0
0.104959 209.309 209.309 1 1 0
0.104961 209.305 209.305 1 1 0
0.104963 209.301 209.301 1 1 0
0.104965 209.297 209.297 1 1 0
0.104968 209.293 209.293 1 1 0
0.10497 209.289 209.289 1 1 0
0.104972 209.285 209.285 1 1 0
0.104974 209.282 209.282 1 1 0
0.104976 209.278 209.278 1 1 0
0.104978 209.274 209.274 1 1 0
0.10498 209.27 209.27 1 1 0
0.104982 209.266 209.266 1 1 0
0.104984 209.262 209.262 1 1 0
0.104986 209.258 209.258 1 1 0
0.104988 209.254 209.254 1 1 0
0.10499 209.25 209.25 1 1 0
0.104992 209.246 209.246 1 1 0
0.104994 209.242 209.242 1 1 0
0.104997 209.238 209.238 1 1 0
0.104999 209.234 209.234 1 1 0
0.105001 209.23 209.23 1 1 0
0.105003 209.226 209.226 1 1 0
0.105005 209.222 209.222 1 1 0
0.105007 209.218 209.218 1 1 0
0.105009 209.214 209.214 1 1 0
0.105011 209.21 209.21 1 1 0
0.105013 209.206 209.206 1 1 0
0.105015 209.202 209.202 1 1 0
0.105017 209.198 209.198 1 1 0
0.105019 209.195 209.195 1 1 0
0.105021 209.191 209.191 1 1 0
0.105024 209.187 209.187 1 1 0
0.105026 209.183 209.183 1 1 0
0.105028 209.179 209.179 1 1 0
0.10503 209.175 209.175 1 1 0
0.105032 209.171 209.171 1 1 0
0.105034 209.167 209.167 1 1 0
0.105036 209.163 209.163 1 1 0
0.105038 209.159 209.159 1 1 0
0.10504 209.155 209.155 1 1 0
0.105042 209.151 209.151 1 1 0
0.105044 209.147 209.147 1 1 0
0.105046 209.143 209.143 1 1 0
0.105048 209.139 209.139 1 1 0
0.10505 209.135 209.135 1 1 0
0.105053 209.131 209.131 1 1 0
0.105055 209.127 209.127 1 1 0
0.105057 209.123 209.123 1 1 0
0.105059 209.119 209.119 1 1 0
0.105061 209.115 209.115 1 1 0
0.105063 209.111 209.111 1 1 0
0.105065 209.107 209.107 1 1 0
0.105067 209.104 209.104 1 1 0
0.105069 209.1 209.1 1 1 0
0.105071 209.096 209.096 1 1 0
0.105073 209.092 209.092 1 1 0
0.105075 209.088 209.088 1 1 0
0.105077 209.084 209.084 1 1 0
0.10508 209.08 209.08 1 1 0
0.105082 209.076 209.076 1 1 0
0.105084 209.072 209.072 1 1 0
0.105086 209.068 209.068 1 1 0
0.105088 209.064 209.064 1 1 0
0.10509 209.06 209.06 1 1 0
0.105092 209.056 209.056 1 1 0
0.105094 209.052 209.052 1 1 0
0.105096 209.048 209.048 1 1 0
0.105098 209.044 209.044 1 1 0
0.1051 209.04 209.04 1 1 0
0.105102 209.036 209.036 1 1 0
0.105104 209.032 209.032 1 1 0
0.105107 209.028 209.028 1 1 0
0.105109 209.024 209.024 1 1 0
0.105111 209.02 209.02 1 1 0
0.105113 209.016 209.016 1 1 0
0.105115 209.012 209.012 1 1 0
0.105117 209.008 209.008 1 1 0
0.105119 209.004 209.004 1 1 0
0.105121 209 209 1 1 0
0.105123 208.997 208.997 1 1 0
0.105125 208.993 208.993 1 1 0
0.105127 208.989 208.989 1 1 0
0.105129 208.985 208.985 1 1 0
0.105131 208.981 208.981 1 1 0
0.105134 208.977 208.977 1 1 0
0.105136 208.973 208.973 1 1 0
0.105138 208.969 208.969 1 1 0
0.10514 208.965 208.965 1 1 0
0.105142 208.961 208.961 1 1 0
0.105144 208.957 208.957 1 1 0
0.105146 208.953 208.953 1 1 0
0.105148 208.949 208.949 1 1 0
0.10515 208.945 208.945 1 1 0
0.105152 208.941 208.941 1 1 0
0.105154 208.937 208.937 1 1 0
0.105156 208.933 208.933 1 1 0
0.105158 208.929 208.929 1 1 0
0.105161 208.925 208.925 1 1 0
0.105163 208.921 208.921 1 1 0
0.105165 208.917 208.917 1 1 0
0.105167 208.913 208.913 1 1 0
0.105169 208.909 208.909 1 1 0
0.105171 208.905 208.905 1 1 0
0.105173 208.901 208.901 1 1 0
0.105175 208.897 208.897 1 1 0
0.105177 208.893 208.893 1 1 0
0.105179 208.889 208.889 1 1 0
0.105181 208.885 208.885 1 1 0
0.105183 208.881 208.881 1 1 0
0.105186 208.878 208.878 1 1 0
0.105188 208.874 208.874 1 1 0
0.10519 208.87 208.87 1 1 0
0.105192 208.866 208.866 1 1 0
0.105194 208.862 208.862 1 1 0
0.105196 208.858 208.858 1 1 0
0.105198 208.854 208.854 1 1 0
0.1052 208.85 208.85 1 1 0
0.105202 208.846 208.846 1 1 0
0.105204 208.842 208.842 1 1 0
0.105206 208.838 208.838 1 1 0
0.105208 208.834 208.834 1 1 0
0.105211 208.83 208.83 1 1 0
0.105213 208.826 208.826 1 1 0
0.105215 208.822 208.822 1 1 0
0.105217 208.818 208.818 1 1 0
0.105219 208.814 208.814 1 1 0
0.105221 208.81 208.81 1 1 0
0.105223 208.806 208.806 1 1 0
0.105225 208.802 208.802 1 1 0
0.105227 208.798 208.798 1 1 0
0.105229 208.794 208.794 1 1 0
0.105231 208.79 208.79 1 1 0
0.105233 208.786 208.786 1 1 0
0.105236 208.782 208.782 1 1 0
0.105238 208.778 208.778 1 1 0
0.10524 208.774 208.774 1 1 0
0.105242 208.77 208.77 1 1 0
0.105244 208.766 208.766 1 1 0
0.105246 208.762 208.762 1 1 0
0.105248 208.758 208.758 1 1 0
0.10525 208.754 208.754 1 1 0
0.105252 208.75 208.75 1 1 0
0.105254 208.746 208.746 1 1 0
0.105256 208.742 208.742 1 1 0
0.105258 208.738 208.738 1 1 0
0.105261 208.734 208.734 1 1 0
0.105263 208.731 208.731 1 1 0
0.105265 208.727 208.727 1 1 0
0.105267 208.723 208.723 1 1 0
0.105269 208.719 208.719 1 1 0
0.105271 208.715 208.715 1 1 0
0.105273 208.711 208.711 1 1 0
0.105275 208.707 208.707 1 1 0
0.105277 208.703 208.703 1 1 0
0.105279 208.699 208.699 1 1 0
0.105281 208.695 208.695 1 1 0
0.105283 208.691 208.691 1 1 0
0.105286 208.687 208.687 1 1 0
0.105288 208.683 208.683 1 1 0
0.10529 208.679 208.679 1 1 0
0.105292 208.675 208.675 1 1 0
0.105294 208.671 208.671 1 1 0
0.105296 208.667 208.667 1 1 0
0.105298 208.663 208.663 1 1 0
0.1053 208.659 208.659 1 1 0
0.105302 208.655 208.655 1 1 0
0.105304 208.651 208.651 1 1 0
0.105306 208.647 208.647 1 1 0
0.105308 208.643 208.643 1 1 0
0.105311 208.639 208.639 1 1 0
0.105313 208.635 208.635 1 1 0
0.105315 208.631 208.631 1 1 0
0.105317 208.627 208.627 1 1 0
0.105319 208.623 208.623 1 1 0
0.105321 208.619 208.619 1 1 0
0.105323 208.615 208.615 1 1 0
0.105325 208.611 208.611 1 1 0
0.105327 208.607 208.607 1 1 0
0.105329 208.603 208.603 1 1 0
0.105331 208.599 208.599 1 1 0
0.105334 208.595 208.595 1 1 0
0.105336 208.591 208.591 1 1 0
0.105338 208.587 208.587 1 1 0
0.10534 208.583 208.583 1 1 0
0.105342 208.579 208.579 1 1 0
0.105344 208.575 208.575 1 1 0
0.105346 208.571 208.571 1 1 0
0.105348 208.567 208.567 1 1 0
0.10535 208.563 208.563 1 1 0
0.105352 208.559 208.559 1 1 0
0.105354 208.555 208.555 1 1 0
0.105356 208.551 208.551 1 1 0
0.105359 208.547 208.547 1 1 0
0.105361 208.543 208.543 1 1 0
0.105363 208.539 208.539 1 1 0
0.105365 208.535 208.535 1 1 0
0.105367 208.531 208.531 1 1 0
0.105369 208.527 208.527 1 1 0
0.105371 208.523 208.523 1 1 0
0.105373 208.519 208.519 1 1 0
0.105375 208.516 208.516 1 1 0
0.105377 208.512 208.512 1 1 0
0.105379 208.508 208.508 1 1 0
0.105382 208.504 208.504 1 1 0
0.105384 208.5 208.5 1 1 0
0.105386 208.496 208.496 1 1 0
0.105388 208.492 208.492 1 1 0
0.10539 208.488 208.488 1 1 0
0.105392 208.484 208.484 1 1 0
0.105394 208.48 208.48 1 1 0
0.105396 208.476 208.476 1 1 0
0.105398 208.472 208.472 1 1 0
0.1054 208.468 208.468 1 1 0
0.105402 208.464 208.464 1 1 0
0.105405 208.46 208.46 1 1 0
0.105407 208.456 208.456 1 1 0
0.105409 208.452 208.452 1 1 0
0.105411 208.448 208.448 1 1 0
0.105413 208.444 208.444 1 1 0
0.105415 208.44 208.44 1 1 0
0.105417 208.436 208.436 1 1 0
0.105419 208.432 208.432 1 1 0
0.105421 208.428 208.428 1 1 0
0.105423 208.424 208.424 1 1 0
0.105425 208.42 208.42 1 1 0
0.105428 208.416 208.416 1 1 0
0.10543 208.412 208.412 1 1 0
0.105432 208.408 208.408 1 1 0
0.105434 208.404 208.404 1 1 0
0.105436 208.4 208.4 1 1 0
0.105438 208.396 208.396 1 1 0
0.10544 208.392 208.392 1 1 0
0.105442 208.388 208.388 1 1 0
0.105444 208.384 208.384 1 1 0
0.105446 208.38 208.38 1 1 0
0.105448 208.376 208.376 1 1 0
0.105451 208.372 208.372 1 1 0
0.105453 208.368 208.368 1 1 0
0.105455 208.364 208.364 1 1 0
0.105457 208.36 208.36 1 1 0
0.105459 208.356 208.356 1 1 0
0.105461 208.352 208.352 1 1 0
0.105463 208.348 208.348 1 1 0
0.105465 208.344 208.344 1 1 0
0.105467 208.34 208.34 1 1 0
0.105469 208.336 208.336 1 1 0
0.105471 208.332 208.332 1 1 0
0.105474 208.328 208.328 1 1 0
0.105476 208.324 208.324 1 1 0
0.105478 208.32 208.32 1 1 0
0.10548 208.316 208.316 1 1 0
0.105482 208.312 208.312 1 1 0
0.105484 208.308 208.308 1 1 0
0.105486 208.304 208.304 1 1 0
0.105488 208.3 208.3 1 1 0
0.10549 208.296 208.296 1 1 0
0.105492 208.292 208.292 1 1 0
0.105495 208.288 208.288 1 1 0
0.105497 208.284 208.284 1 1 0
0.105499 208.28 208.28 1 1 0
0.105501 208.276 208.276 1 1 0
0.105503 208.272 208.272 1 1 0
0.105505 208.268 208.268 1 1 0
0.105507 208.264 208.264 1 1 0
0.105509 208.26 208.26 1 1 0
0.105511 208.256 208.256 1 1 0
0.105513 208.252 208.252 1 1 0
0.105515 208.248 208.248 1 1 0
0.105518 208.244 208.244 1 1 0
0.10552 208.24 208.24 1 1 0
0.105522 208.236 208.236 1 1 0
0.105524 208.232 208.232 1 1 0
0.105526 208.228 208.228 1 1 0
0.105528 208.224 208.224 1 1 0
0.10553 208.22 208.22 1 1 0
0.105532 208.216 208.216 1 1 0
0.105534 208.212 208.212 1 1 0
0.105536 208.208 208.208 1 1 0
0.105539 208.204 208.204 1 1 0
0.105541 208.2 208.2 1 1 0
0.105543 208.196 208.196 1 1 0
0.105545 208.192 208.192 1 1 0
0.105547 208.188 208.188 1 1 0
0.105549 208.184 208.184 1 1 0
0.105551 208.18 208.18 1 1 0
0.105553 208.176 208.176 1 1 0
0.105555 208.172 208.172 1 1 0
0.105557 208.168 208.168 1 1 0
0.105559 208.164 208.164 1 1 0
0.105562 208.16 208.16 1 1 0
0.105564 208.156 208.156 1 1 0
0.105566 208.152 208.152 1 1 0
0.105568 208.148 208.148 1 1 0
0.10557 208.144 208.144 1 1 0
0.105572 208.14 208.14 1 1 0
0.105574 208.136 208.136 1 1 0
0.105576 208.132 208.132 1 1 0
0.105578 208.128 208.128 1 1 0
0.10558 208.124 208.124 1 1 0
0.105583 208.12 208.12 1 1 0
0.105585 208.116 208.116 1 1 0
0.105587 208.112 208.112 1 1 0
0.105589 208.108 208.108 1 1 0
0.105591 208.104 208.104 1 1 0
0.105593 208.1 208.1 1 1 0
0.105595 208.096 208.096 1 1 0
0.105597 208.092 208.092 1 1 0
0.105599 208.088 208.088 1 1 0
0.105601 208.084 208.084 1 1 0
0.105604 208.08 208.08 1 1 0
0.105606 208.076 208.076 1 1 0
0.105608 208.072 208.072 1 1 0
0.10561 208.068 208.068 1 1 0
0.105612 208.064 208.064 1 1 0
0.105614 208.06 208.06 1 1 0
0.105616 208.056 208.056 1 1 0
0.105618 208.052 208.052 1 1 0
0.10562 208.048 208.048 1 1 0
0.105622 208.044 208.044 1 1 0
0.105625 208.04 208.04 1 1 0
0.105627 208.036 208.036 1 1 0
0.105629 208.032 208.032 1 1 0
0.105631 208.028 208.028 1 1 0
0.105633 208.024 208.024 1 1 0
0.105635 208.02 208.02 1 1 0
0.105637 208.016 208.016 1 1 0
0.105639 208.012 208.012 1 1 0
0.105641 208.008 208.008 1 1 0
0.105643 208.004 208.004 1 1 0
0.105646 208 208 1 1 0
0.105648 207.996 207.996 1 1 0
0.10565 207.992 207.992 1 1 0
0.105652 207.988 207.988 1 1 0
0.105654 207.984 207.984 1 1 0
0.105656 207.98 207.98 1 1 0
0.105658 207.976 207.976 1 1 0
0.10566 207.972 207.972 1 1 0
0.105662 207.968 207.968 1 1 0
0.105664 207.964 207.964 1 1 0
0.105667 207.96 207.96 1 1 0
0.105669 207.956 207.956 1 1 0
0.105671 207.952 207.952 1 1 0
0.105673 207.948 207.948 1 1 0
0.105675 207.944 207.944 1 1 0
0.105677 207.94 207.94 1 1 0
0.105679 207.936 207.936 1 1 0
0.105681 207.932 207.932 1 1 0
0.105683 207.928 207.928 1 1 0
0.105685 207.923 207.923 1 1 0
0.105688 207.919 207.919 1 1 0
0.10569 207.915 207.915 1 1 0
0.105692 207.911 207.911 1 1 0
0.105694 207.907 207.907 1 1 0
0.105696 207.903 207.903 1 1 0
0.105698 207.899 207.899 1 1 0
0.1057 207.895 207.895 1 1 0
0.105702 207.891 207.891 1 1 0
0.105704 207.887 207.887 1 1 0
0.105707 207.883 207.883 1 1 0
0.105709 207.879 207.879 1 1 0
0.105711 207.875 207.875 1 1 0
0.105713 207.871 207.871 1 1 0
0.105715 207.867 207.867 1 1 0
0.105717 207.863 207.863 1 1 0
0.105719 207.859 207.859 1 1 0
0.105721 207.855 207.855 1 1 0
0.105723 207.851 207.851 1 1 0
0.105725 207.847 207.847 1 1 0
0.105728 207.843 207.843 1 1 0
0.10573 207.839 207.839 1 1 0
0.105732 207.835 207.835 1 1 0
0.105734 207.831 207.831 1 1 0
0.105736 207.827 207.827 1 1 0
0.105738 207.823 207.823 1 1 0
0.10574 207.819 207.819 1 1 0
0.105742 207.815 207.815 1 1 0
0.105744 207.811 207.811 1 1 0
0.105747 207.807 207.807 1 1 0
0.105749 207.803 207.803 1 1 0
0.105751 207.799 207.799 1 1 0
0.105753 207.795 207.795 1 1 0
0.105755 207.791 207.791 1 1 0
0.105757 207.787 207.787 1 1 0
0.105759 207.783 207.783 1 1 0
0.105761 207.779 207.779 1 1 0
0.105763 207.775 207.775 1 1 0
0.105765 207.771 207.771 1 1 0
0.105768 207.767 207.767 1 1 0
0.10577 207.763 207.763 1 1 0
0.105772 207.759 207.759 1 1 0
0.105774 207.755 207.755 1 1 0
0.105776 207.751 207.751 1 1 0
0.105778 207.747 207.747 1 1 0
0.10578 207.743 207.743 1 1 0
0.105782 207.739 207.739 1 1 0
0.105784 207.735 207.735 1 1 0
0.105787 207.731 207.731 1 1 0
0.105789 207.727 207.727 1 1 0
0.105791 207.723 207.723 1 1 0
0.105793 207.719 207.719 1 1 0
0.105795 207.715 207.715 1 1 0
0.105797 207.711 207.711 1 1 0
0.105799 207.706 207.706 1 1 0
0.105801 207.702 207.702 1 1 0
0.105803 207.698 207.698 1 1 0
0.105806 207.694 207.694 1 1 0
0.105808 207.69 207.69 1 1 0
0.10581 207.686 207.686 1 1 0
0.105812 207.682 207.682 1 1 0
0.105814 207.678 207.678 1 1 0
0.105816 207.674 207.674 1 1 0
0.105818 207.67 207.67 1 1 0
0.10582 207.666 207.666 1 1 0
0.105822 207.662 207.662 1 1 0
0.105824 207.658 207.658 1 1 0
0.105827 207.654 207.654 1 1 0
0.105829 207.65 207.65 1 1 0
0.105831 207.646 207.646 1 1 0
0.105833 207.642 207.642 1 1 0
0.105835 207.638 207.638 1 1 0
0.105837 207.634 207.634 1 1 0
0.105839 207.63 207.63 1 1 0
0.105841 207.626 207.626 1 1 0
0.105843 207.622 207.622 1 1 0
0.105846 207.618 207.618 1 1 0
0.105848 207.614 207.614 1 1 0
0.10585 207.61 207.61 1 1 0
0.105852 207.606 207.606 1 1 0
0.105854 207.602 207.602 1 1 0
0.105856 207.598 207.598 1 1 0
0.105858 207.594 207.594 1 1 0
0.10586 207.59 207.59 1 1 0
0.105862 207.586 207.586 1 1 0
0.105865 207.582 207.582 1 1 0
0.105867 207.578 207.578 1 1 0
0.105869 207.574 207.574 1 1 0
0.105871 207.57 207.57 1 1 0
0.105873 207.566 207.566 1 1 0
0.105875 207.561 207.561 1 1 0
0.105877 207.557 207.557 1 1 0
0.105879 207.553 207.553 1 1 0
0.105881 207.549 207.549 1 1 0
0.105884 207.545 207.545 1 1 0
0.105886 207.541 207.541 1 1 0
0.105888 207.537 207.537 1 1 0
0.10589 207.533 207.533 1 1 0
0.105892 207.529 207.529 1 1 0
0.105894 207.525 207.525 1 1 0
0.105896 207.521 207.521 1 1 0
0.105898 207.517 207.517 1 1 0
0.1059 207.513 207.513 1 1 0
0.105903 207.509 207.509 1 1 0
0.105905 207.505 207.505 1 1 0
0.105907 207.501 207.501 1 1 0
0.105909 207.497 207.497 1 1 0
0.105911 207.493 207.493 1 1 0
0.105913 207.489 207.489 1 1 0
0.105915 207.485 207.485 1 1 0
0.105917 207.481 207.481 1 1 0
0.105919 207.477 207.477 1 1 0
0.105922 207.473 207.473 1 1 0
0.105924 207.469 207.469 1 1 0
0.105926 207.465 207.465 1 1 0
0.105928 207.461 207.461 1 1 0
0.10593 207.457 207.457 1 1 0
0.105932 207.453 207.453 1 1 0
0.105934 207.449 207.449 1 1 0
0.105936 207.445 207.445 1 1 0
0.105939 207.44 207.44 1 1 0
0.105941 207.436 207.436 1 1 0
0.105943 207.432 207.432 1 1 0
0.105945 207.428 207.428 1 1 0
0.105947 207.424 207.424 1 1 0
0.105949 207.42 207.42 1 1 0
0.105951 207.416 207.416 1 1 0
0.105953 207.412 207.412 1 1 0
0.105955 207.408 207.408 1 1 0
0.105958 207.404 207.404 1 1 0
0.10596 207.4 207.4 1 1 0
0.105962 207.396 207.396 1 1 0
0.105964 207.392 207.392 1 1 0
0.105966 207.388 207.388 1 1 0
0.105968 207.384 207.384 1 1 0
0.10597 207.38 207.38 1 1 0
0.105972 207.376 207.376 1 1 0
0.105974 207.372 207.372 1 1 0
0.105977 207.368 207.368 1 1 0
0.105979 207.364 207.364 1 1 0
0.105981 207.36 207.36 1 1 0
0.105983 207.356 207.356 1 1 0
0.105985 207.352 207.352 1 1 0
0.105987 207.348 207.348 1 1 0
0.105989 207.344 207.344 1 1 0
0.105991 207.34 207.34 1 1 0
0.105994 207.335 207.335 1 1 0
0.105996 207.331 207.331 1 1 0
0.105998 207.327 207.327 1 1 0
0.106 207.323 207.323 1 1 0
0.106002 207.319 207.319 1 1 0
0.106004 207.315 207.315 1 1 0
0.106006 207.311 207.311 1 1 0
0.106008 207.307 207.307 1 1 0
0.10601 207.303 207.303 1 1 0
0.106013 207.299 207.299 1 1 0
0.106015 207.295 207.295 1 1 0
0.106017 207.291 207.291 1 1 0
0.106019 207.287 207.287 1 1 0
0.106021 207.283 207.283 1 1 0
0.106023 207.279 207.279 1 1 0
0.106025 207.275 207.275 1 1 0
0.106027 207.271 207.271 1 1 0
0.10603 207.267 207.267 1 1 0
0.106032 207.263 207.263 1 1 0
0.106034 207.259 207.259 1 1 0
0.106036 207.255 207.255 1 1 0
0.106038 207.251 207.251 1 1 0
0.10604 207.247 207.247 1 1 0
0.106042 207.242 207.242 1 1 0
0.106044 207.238 207.238 1 1 0
0.106046 207.234 207.234 1 1 0
0.106049 207.23 207.23 1 1 0
0.106051 207.226 207.226 1 1 0
0.106053 207.222 207.222 1 1 0
0.106055 207.218 207.218 1 1 0
0.106057 207.214 207.214 1 1 0
0.106059 207.21 207.21 1 1 0
0.106061 207.206 207.206 1 1 0
0.106063 207.202 207.202 1 1 0
0.106066 207.198 207.198 1 1 0
0.106068 207.194 207.194 1 1 0
0.10607 207.19 207.19 1 1 0
0.106072 207.186 207.186 1 1 0
0.106074 207.182 207.182 1 1 0
0.106076 207.178 207.178 1 1 0
0.106078 207.174 207.174 1 1 0
0.10608 207.17 207.17 1 1 0
0.106083 207.166 207.166 1 1 0
0.106085 207.162 207.162 1 1 0
0.106087 207.157 207.157 1 1 0
0.106089 207.153 207.153 1 1 0
0.106091 207.149 207.149 1 1 0
0.106093 207.145 207.145 1 1 0
0.106095 207.141 207.141 1 1 0
0.106097 207.137 207.137 1 1 0
0.106099 207.133 207.133 1 1 0
0.106102 207.129 207.129 1 1 0
0.106104 207.125 207.125 1 1 0
0.106106 207.121 207.121 1 1 0
0.106108 207.117 207.117 1 1 0
0.10611 207.113 207.113 1 1 0
0.106112 207.109 207.109 1 1 0
0.106114 207.105 207.105 1 1 0
0.106116 207.101 207.101 1 1 0
0.106119 207.097 207.097 1 1 0
0.106121 207.093 207.093 1 1 0
0.106123 207.089 207.089 1 1 0
0.106125 207.085 207.085 1 1 0
0.106127 207.081 207.081 1 1 0
0.106129 207.076 207.076 1 1 0
0.106131 207.072 207.072 1 1 0
0.106133 207.068 207.068 1 1 0
0.106136 207.064 207.064 1 1 0
0.106138 207.06 207.06 1 1 0
0.10614 207.056 207.056 1 1 0
0.106142 207.052 207.052 1 1 0
0.106144 207.048 207.048 1 1 0
0.106146 207.044 207.044 1 1 0
0.106148 207.04 207.04 1 1 0
0.10615 207.036 207.036 1 1 0
0.106153 207.032 207.032 1 1 0
0.106155 207.028 207.028 1 1 0
0.106157 207.024 207.024 1 1 0
0.106159 207.02 207.02 1 1 0
0.106161 207.016 207.016 1 1 0
0.106163 207.012 207.012 1 1 0
0.106165 207.008 207.008 1 1 0
0.106167 207.003 207.003 1 1 0
0.10617 206.999 206.999 1 1 0
0.106172 206.995 206.995 1 1 0
0.106174 206.991 206.991 1 1 0
0.106176 206.987 206.987 1 1 0
0.106178 206.983 206.983 1 1 0
0.10618 206.979 206.979 1 1 0
0.106182 206.975 206.975 1 1 0
0.106184 206.971 206.971 1 1 0
0.106187 206.967 206.967 1 1 0
0.106189 206.963 206.963 1 1 0
0.106191 206.959 206.959 1 1 0
0.106193 206.955 206.955 1 1 0
0.106195 206.951 206.951 1 1 0
0.106197 206.947 206.947 1 1 0
0.106199 206.943 206.943 1 1 0
0.106201 206.939 206.939 1 1 0
0.106204 206.934 206.934 1 1 0
0.106206 206.93 206.93 1 1 0
0.106208 206.926 206.926 1 1 0
0.10621 206.922 206.922 1 1 0
0.106212 206.918 206.918 1 1 0
0.106214 206.914 206.914 1 1 0
0.106216 206.91 206.91 1 1 0
0.106218 206.906 206.906 1 1 0
0.106221 206.902 206.902 1 1 0
0.106223 206.898 206.898 1 1 0
0.106225 206.894 206.894 1 1 0
0.106227 206.89 206.89 1 1 0
0.106229 206.886 206.886 1 1 0
0.106231 206.882 206.882 1 1 0
0.106233 206.878 206.878 1 1 0
0.106235 206.874 206.874 1 1 0
0.106238 206.869 206.869 1 1 0
0.10624 206.865 206.865 1 1 0
0.106242 206.861 206.861 1 1 0
0.106244 206.857 206.857 1 1 0
0.106246 206.853 206.853 1 1 0
0.106248 206.849 206.849 1 1 0
0.10625 206.845 206.845 1 1 0
0.106253 206.841 206.841 1 1 0
0.106255 206.837 206.837 1 1 0
0.106257 206.833 206.833 1 1 0
0.106259 206.829 206.829 1 1 0
0.106261 206.825 206.825 1 1 0
0.106263 206.821 206.821 1 1 0
0.106265 206.817 206.817 1 1 0
0.106267 206.813 206.813 1 1 0
0.10627 206.809 206.809 1 1 0
0.106272 206.804 206.804 1 1 0
0.106274 206.8 206.8 1 1 0
0.106276 206.796 206.796 1 1 0
0.106278 206.792 206.792 1 1 0
0.10628 206.788 206.788 1 1 0
0.106282 206.784 206.784 1 1 0
0.106284 206.78 206.78 1 1 0
0.106287 206.776 206.776 1 1 0
0.106289 206.772 206.772 1 1 0
0.106291 206.768 206.768 1 1 0
0.106293 206.764 206.764 1 1 0
0.106295 206.76 206.76 1 1 0
0.106297 206.756 206.756 1 1 0
0.106299 206.752 206.752 1 1 0
0.106301 206.748 206.748 1 1 0
0.106304 206.743 206.743 1 1 0
0.106306 206.739 206.739 1 1 0
0.106308 206.735 206.735 1 1 0
0.10631 206.731 206.731 1 1 0
0.106312 206.727 206.727 1 1 0
0.106314 206.723 206.723 1 1 0
0.106316 206.719 206.719 1 1 0
0.106319 206.715 206.715 1 1 0
0.106321 206.711 206.711 1 1 0
0.106323 206.707 206.707 1 1 0
0.106325 206.703 206.703 1 1 0
0.106327 206.699 206.699 1 1 0
0.106329 206.695 206.695 1 1 0
0.106331 206.691 206.691 1 1 0
0.106333 206.686 206.686 1 1 0
0.106336 206.682 206.682 1 1 0
0.106338 206.678 206.678 1 1 0
0.10634 206.674 206.674 1 1 0
0.106342 206.67 206.67 1 1 0
0.106344 206.666 206.666 1 1 0
0.106346 206.662 206.662 1 1 0
0.106348 206.658 206.658 1 1 0
0.106351 206.654 206.654 1 1 0
0.106353 206.65 206.65 1 1 0
0.106355 206.646 206.646 1 1 0
0.106357 206.642 206.642 1 1 0
0.106359 206.638 206.638 1 1 0
0.106361 206.633 206.633 1 1 0
0.106363 206.629 206.629 1 1 0
0.106365 206.625 206.625 1 1 0
0.106368 206.621 206.621 1 1 0
0.10637 206.617 206.617 1 1 0
0.106372 206.613 206.613 1 1 0
0.106374 206.609 206.609 1 1 0
0.106376 206.605 206.605 1 1 0
0.106378 206.601 206.601 1 1 0
0.10638 206.597 206.597 1 1 0
0.106383 206.593 206.593 1 1 0
0.106385 206.589 206.589 1 1 0
0.106387 206.585 206.585 1 1 0
0.106389 206.581 206.581 1 1 0
0.106391 206.576 206.576 1 1 0
0.106393 206.572 206.572 1 1 0
0.106395 206.568 206.568 1 1 0
0.106397 206.564 206.564 1 1 0
0.1064 206.56 206.56 1 1 0
0.106402 206.556 206.556 1 1 0
0.106404 206.552 206.552 1 1 0
0.106406 206.548 206.548 1 1 0
0.106408 206.544 206.544 1 1 0
0.10641 206.54 206.54 1 1 0
0.106412 206.536 206.536 1 1 0
0.106415 206.532 206.532 1 1 0
0.106417 206.527 206.527 1 1 0
0.106419 206.523 206.523 1 1 0
0.106421 206.519 206.519 1 1 0
0.106423 206.515 206.515 1 1 0
0.106425 206.511 206.511 1 1 0
0.106427 206.507 206.507 1 1 0
0.10643 206.503 206.503 1 1 0
0.106432 206.499 206.499 1 1 0
0.106434 206.495 206.495 1 1 0
0.106436 206.491 206.491 1 1 0
0.106438 206.487 206.487 1 1 0
0.10644 206.483 206.483 1 1 0
0.106442 206.479 206.479 1 1 0
0.106444 206.474 206.474 1 1 0
0.106447 206.47 206.47 1 1 0
0.106449 206.466 206.466 1 1 0
0.106451 206.462 206.462 1 1 0
0.106453 206.458 206.458 1 1 0
0.106455 206.454 206.454 1 1 0
0.106457 206.45 206.45 1 1 0
0.106459 206.446 206.446 1 1 0
0.106462 206.442 206.442 1 1 0
0.106464 206.438 206.438 1 1 0
0.106466 206.434 206.434 1 1 0
0.106468 206.43 206.43 1 1 0
0.10647 206.425 206.425 1 1 0
0.106472 206.421 206.421 1 1 0
0.106474 206.417 206.417 1 1 0
0.106477 206.413 206.413 1 1 0
0.106479 206.409 206.409 1 1 0
0.106481 206.405 206.405 1 1 0
0.106483 206.401 206.401 1 1 0
0.106485 206.397 206.397 1 1 0
0.106487 206.393 206.393 1 1 0
0.106489 206.389 206.389 1 1 0
0.106492 206.385 206.385 1 1 0
0.106494 206.381 206.381 1 1 0
0.106496 206.376 206.376 1 1 0
0.106498 206.372 206.372 1 1 0
0.1065 206.368 206.368 1 1 0
