0.0430806 15.006 15.006 2 1 0
0.0430826 15.006 15.006 2 1 0
0.0430846 15.0059 15.0059 2 1 0
0.0430867 15.0059 15.0059 2 1 0
0.0430887 15.0059 15.0059 2 1 0
0.0430908 15.0059 15.0059 2 1 0
0.0430929 15.0059 15.0059 2 1 0
0.043095 15.0059 15.0059 2 1 0
0.0430972 15.0058 15.0058 2 1 0
0.0430993 15.0058 15.0058 2 1 0
0.0431015 15.0058 15.0058 2 1 0
0.0431037 15.0058 15.0058 2 1 0
0.043106 15.0058 15.0058 2 1 0
0.0431082 15.0058 15.0058 2 1 0
0.0431105 15.0057 15.0057 2 1 0
0.0431128 15.0057 15.0057 2 1 0
0.0431151 15.0057 15.0057 2 1 0
0.0431174 15.0057 15.0057 2 1 0
0.0431197 15.0057 15.0057 2 1 0
0.0431221 15.0057 15.0057 2 1 0
0.0431245 15.0056 15.0056 2 1 0
0.0431269 15.0056 15.0056 2 1 0
0.0431294 15.0056 15.0056 2 1 0
0.0431318 15.0056 15.0056 2 1 0
0.0431343 15.0056 15.0056 2 1 0
0.0431368 15.0056 15.0056 2 1 0
0.0431394 15.0055 15.0055 2 1 0
0.0431419 15.0055 15.0055 2 1 0
0.0431445 15.0055 15.0055 2 1 0
0.0431471 15.0055 15.0055 2 1 0
0.0431497 15.0055 15.0055 2 1 0
0.0431524 15.0054 15.0054 2 1 0
0.0431551 15.0054 15.0054 2 1 0
0.0431578 15.0054 15.0054 2 1 0
0.0431605 15.0054 15.0054 2 1 0
0.0431633 15.0054 15.0054 2 1 0
0.043166 15.0054 15.0054 2 1 0
0.0431688 15.0053 15.0053 2 1 0
0.0431717 15.0053 15.0053 2 1 0
0.0431745 15.0053 15.0053 2 1 0
0.0431774 15.0053 15.0053 2 1 0
0.0431803 15.0053 15.0053 2 1 0
0.0431833 15.0053 15.0053 2 1 0
0.0431862 15.0052 15.0052 2 1 0
0.0431892 15.0052 15.0052 2 1 0
0.0431923 15.0052 15.0052 2 1 0
0.0431953 15.0052 15.0052 2 1 0
0.0431984 15.0052 15.0052 2 1 0
0.0432015 15.0052 15.0052 2 1 0
0.0432046 15.0051 15.0051 2 1 0
0.0432078 15.0051 15.0051 2 1 0
0.043211 15.0051 15.0051 2 1 0
0.0432142 15.0051 15.0051 2 1 0
0.0432175 15.0051 15.0051 2 1 0
0.0432208 15.0051 15.0051 2 1 0
0.0432241 15.005 15.005 2 1 0
0.0432274 15.005 15.005 2 1 0
0.0432308 15.005 15.005 2 1 0
0.0432342 15.005 15.005 2 1 0
0.0432377 15.005 15.005 2 1 0
0.0432412 15.0049 15.0049 2 1 0
0.0432447 15.0049 15.0049 2 1 0
0.0432482 15.0049 15.0049 2 1 0
0.0432518 15.0049 15.0049 2 1 0
0.0432554 15.0049 15.0049 2 1 0
0.0432591 15.0049 15.0049 2 1 0
0.0432627 15.0048 15.0048 2 1 0
0.0432665 15.0048 15.0048 2 1 0
0.0432702 15.0048 15.0048 2 1 0
0.043274 15.0048 15.0048 2 1 0
0.0432778 15.0048 15.0048 2 1 0
0.0432817 15.0048 15.0048 2 1 0
0.0432856 15.0047 15.0047 2 1 0
0.0432895 15.0047 15.0047 2 1 0
0.0432935 15.0047 15.0047 2 1 0
0.0432975 15.0047 15.0047 2 1 0
0.0433015 15.0047 15.0047 2 1 0
0.0433056 15.0047 15.0047 2 1 0
0.0433097 15.0046 15.0046 2 1 0
0.0433139 15.0046 15.0046 2 1 0
0.0433181 15.0046 15.0046 2 1 0
0.0433223 15.0046 15.0046 2 1 0
0.0433266 15.0046 15.0046 2 1 0
0.043331 15.0046 15.0046 2 1 0
0.0433353 15.0045 15.0045 2 1 0
0.0433397 15.0045 15.0045 2 1 0
0.0433442 15.0045 15.0045 2 1 0
0.0433487 15.0045 15.0045 2 1 0
0.0433532 15.0045 15.0045 2 1 0
0.0433578 15.0044 15.0044 2 1 0
0.0433624 15.0044 15.0044 2 1 0
0.0433671 15.0044 15.0044 2 1 0
0.0433718 15.0044 15.0044 2 1 0
0.0433766 15.0044 15.0044 2 1 0
0.0433814 15.0044 15.0044 2 1 0
0.0433863 15.0043 15.0043 2 1 0
0.0433912 15.0043 15.0043 2 1 0
0.0433961 15.0043 15.0043 2 1 0
0.0434011 15.0043 15.0043 2 1 0
0.0434062 15.0043 15.0043 2 1 0
0.0434113 15.0043 15.0043 2 1 0
0.0434164 15.0042 15.0042 2 1 0
0.0434217 15.0042 15.0042 2 1 0
0.0434269 15.0042 15.0042 2 1 0
0.0434322 15.0042 15.0042 2 1 0
0.0434376 15.0042 15.0042 2 1 0
0.043443 15.0042 15.0042 2 1 0
0.0434485 15.0041 15.0041 2 1 0
0.043454 15.0041 15.0041 2 1 0
0.0434596 15.0041 15.0041 2 1 0
0.0434652 15.0041 15.0041 2 1 0
0.0434709 15.0041 15.0041 2 1 0
0.0434767 15.0041 15.0041 2 1 0
0.0434825 15.004 15.004 2 1 0
0.0434883 15.004 15.004 2 1 0
0.0434943 15.004 15.004 2 1 0
0.0435002 15.004 15.004 2 1 0
0.0435063 15.004 15.004 2 1 0
0.0435124 15.004 15.004 2 1 0
0.0435186 15.0039 15.0039 2 1 0
0.0435248 15.0039 15.0039 2 1 0
0.0435311 15.0039 15.0039 2 1 0
0.0435375 15.0039 15.0039 2 1 0
0.0435439 15.0039 15.0039 2 1 0
0.0435504 15.0038 15.0038 2 1 0
0.043557 15.0038 15.0038 2 1 0
0.0435636 15.0038 15.0038 2 1 0
0.0435703 15.0038 15.0038 2 1 0
0.0435771 15.0038 15.0038 2 1 0
0.0435839 15.0038 15.0038 2 1 0
0.0435908 15.0037 15.0037 2 1 0
0.0435978 15.0037 15.0037 2 1 0
0.0436049 15.0037 15.0037 2 1 0
0.043612 15.0037 15.0037 2 1 0
0.0436192 15.0037 15.0037 2 1 0
0.0436265 15.0037 15.0037 2 1 0
0.0436339 15.0036 15.0036 2 1 0
0.0436413 15.0036 15.0036 2 1 0
0.0436488 15.0036 15.0036 2 1 0
0.0436564 15.0036 15.0036 2 1 0
0.0436641 15.0036 15.0036 2 1 0
0.0436719 15.0036 15.0036 2 1 0
0.0436797 15.0035 15.0035 2 1 0
0.0436876 15.0035 15.0035 2 1 0
0.0436957 15.0035 15.0035 2 1 0
0.0437038 15.0035 15.0035 2 1 0
0.0437119 15.0035 15.0035 2 1 0
0.0437202 15.0035 15.0035 2 1 0
0.0437286 15.0034 15.0034 2 1 0
0.0437371 15.0034 15.0034 2 1 0
0.0437456 15.0034 15.0034 2 1 0
0.0437543 15.0034 15.0034 2 1 0
0.043763 15.0034 15.0034 2 1 0
0.0437719 15.0034 15.0034 2 1 0
0.0437808 15.0033 15.0033 2 1 0
0.0437898 15.0033 15.0033 2 1 0
0.043799 15.0033 15.0033 2 1 0
0.0438082 15.0033 15.0033 2 1 0
0.0438175 15.0033 15.0033 2 1 0
0.043827 15.0033 15.0033 2 1 0
0.0438365 15.0032 15.0032 2 1 0
0.0438462 15.0032 15.0032 2 1 0
0.043856 15.0032 15.0032 2 1 0
0.0438659 15.0032 15.0032 2 1 0
0.0438758 15.0032 15.0032 2 1 0
0.043886 15.0032 15.0032 2 1 0
0.0438962 15.0031 15.0031 2 1 0
0.0439065 15.0031 15.0031 2 1 0
0.043917 15.0031 15.0031 2 1 0
0.0439275 15.0031 15.0031 2 1 0
0.0439382 15.0031 15.0031 2 1 0
0.0439491 15.003 15.003 2 1 0
0.04396 15.003 15.003 2 1 0
0.0439711 15.003 15.003 2 1 0
0.0439823 15.003 15.003 2 1 0
0.0439936 15.003 15.003 2 1 0
0.0440051 15.003 15.003 2 1 0
0.0440167 15.0029 15.0029 2 1 0
0.0440284 15.0029 15.0029 2 1 0
0.0440403 15.0029 15.0029 2 1 0
0.0440523 15.0029 15.0029 2 1 0
0.0440644 15.0029 15.0029 2 1 0
0.0440767 15.0029 15.0029 2 1 0
0.0440891 15.0028 15.0028 2 1 0
0.0441017 15.0028 15.0028 2 1 0
0.0441145 15.0028 15.0028 2 1 0
0.0441273 15.0028 15.0028 2 1 0
0.0441404 15.0028 15.0028 2 1 0
0.0441536 15.0028 15.0028 2 1 0
0.0441669 15.0027 15.0027 2 1 0
0.0441804 15.0027 15.0027 2 1 0
0.0441941 15.0027 15.0027 2 1 0
0.044208 15.0027 15.0027 2 1 0
0.044222 15.0027 15.0027 2 1 0
0.0442362 15.0027 15.0027 2 1 0
0.0442505 15.0026 15.0026 2 1 0
0.044265 15.0026 15.0026 2 1 0
0.0442797 15.0026 15.0026 2 1 0
0.0442946 15.0026 15.0026 2 1 0
0.0443097 15.0026 15.0026 2 1 0
0.0443249 15.0026 15.0026 2 1 0
0.0443403 15.0025 15.0025 2 1 0
0.0443559 15.0025 15.0025 2 1 0
0.0443718 15.0025 15.0025 2 1 0
0.0443878 15.0025 15.0025 2 1 0
0.0444039 15.0025 15.0025 2 1 0
0.0444203 15.0025 15.0025 2 1 0
0.0444369 15.0025 15.0025 2 1 0
0.0444537 15.0024 15.0024 2 1 0
0.0444708 15.0024 15.0024 2 1 0
0.044488 15.0024 15.0024 2 1 0
0.0445054 15.0024 15.0024 2 1 0
0.044523 15.0024 15.0024 2 1 0
0.0445409 15.0024 15.0024 2 1 0
0.044559 15.0023 15.0023 2 1 0
0.0445773 15.0023 15.0023 2 1 0
0.0445958 15.0023 15.0023 2 1 0
0.0446146 15.0023 15.0023 2 1 0
0.0446336 15.0023 15.0023 2 1 0
0.0446528 15.0023 15.0023 2 1 0
0.0446722 15.0022 15.0022 2 1 0
0.0446919 15.0022 15.0022 2 1 0
0.0447119 15.0022 15.0022 2 1 0
0.044732 15.0022 15.0022 2 1 0
0.0447525 15.0022 15.0022 2 1 0
0.0447731 15.0022 15.0022 2 1 0
0.0447941 15.0021 15.0021 2 1 0
0.0448153 15.0021 15.0021 2 1 0
0.0448367 15.0021 15.0021 2 1 0
0.0448584 15.0021 15.0021 2 1 0
0.0448804 15.0021 15.0021 2 1 0
0.0449026 15.0021 15.0021 2 1 0
0.0449251 15.0021 15.0021 2 1 0
0.0449478 15.002 15.002 2 1 0
0.0449709 15.002 15.002 2 1 0
0.0449942 15.002 15.002 2 1 0
0.0450178 15.002 15.002 2 1 0
0.0450416 15.002 15.002 2 1 0
0.0450658 15.002 15.002 2 1 0
0.0450902 15.002 15.002 2 1 0
0.0451149 15.0019 15.0019 2 1 0
0.0451399 15.0019 15.0019 2 1 0
0.0451652 15.0019 15.0019 2 1 0
0.0451908 15.0019 15.0019 2 1 0
0.0452167 15.0019 15.0019 2 1 0
0.0452428 15.0019 15.0019 2 1 0
0.0452693 15.0018 15.0018 2 1 0
0.045296 15.0018 15.0018 2 1 0
0.0453231 15.0018 15.0018 2 1 0
0.0453504 15.0018 15.0018 2 1 0
0.0453781 15.0018 15.0018 2 1 0
0.045406 15.0018 15.0018 2 1 0
0.0454343 15.0018 15.0018 2 1 0
0.0454628 15.0017 15.0017 2 1 0
0.0454917 15.0017 15.0017 2 1 0
0.0455208 15.0017 15.0017 2 1 0
0.0455503 15.0017 15.0017 2 1 0
0.0455801 15.0017 15.0017 2 1 0
0.0456101 15.0017 15.0017 2 1 0
0.0456405 15.0017 15.0017 2 1 0
0.0456712 15.0017 15.0017 2 1 0
0.0457022 15.0016 15.0016 2 1 0
0.0457334 15.0016 15.0016 2 1 0
0.045765 15.0016 15.0016 2 1 0
0.0457969 15.0016 15.0016 2 1 0
0.0458291 15.0016 15.0016 2 1 0
0.0458616 15.0016 15.0016 2 1 0
0.0458943 15.0016 15.0016 2 1 0
0.0459274 15.0015 15.0015 2 1 0
0.0459608 15.0015 15.0015 2 1 0
0.0459945 15.0015 15.0015 2 1 0
0.0460284 15.0015 15.0015 2 1 0
0.0460627 15.0015 15.0015 2 1 0
0.0460972 15.0015 15.0015 2 1 0
0.046132 15.0015 15.0015 2 1 0
0.0461671 15.0015 15.0015 2 1 0
0.0462025 15.0014 15.0014 2 1 0
0.0462382 15.0014 15.0014 2 1 0
0.0462741 15.0014 15.0014 2 1 0
0.0463103 15.0014 15.0014 2 1 0
0.0463468 15.0014 15.0014 2 1 0
0.0463835 15.0014 15.0014 2 1 0
0.0464206 15.0014 15.0014 2 1 0
0.0464578 15.0014 15.0014 2 1 0
0.0464954 15.0014 15.0014 2 1 0
0.0465332 15.0013 15.0013 2 1 0
0.0465712 15.0013 15.0013 2 1 0
0.0466095 15.0013 15.0013 2 1 0
0.0466481 15.0013 15.0013 2 1 0
0.0466869 15.0013 15.0013 2 1 0
0.0467259 15.0013 15.0013 2 1 0
0.0467652 15.0013 15.0013 2 1 0
0.0468047 15.0013 15.0013 2 1 0
0.0468444 15.0013 15.0013 2 1 0
0.0468844 15.0013 15.0013 2 1 0
0.0469245 15.0012 15.0012 2 1 0
0.0469649 15.0012 15.0012 2 1 0
0.0470056 15.0012 15.0012 2 1 0
0.0470464 15.0012 15.0012 2 1 0
0.0470874 15.0012 15.0012 2 1 0
0.0471287 15.0012 15.0012 2 1 0
0.0471701 15.0012 15.0012 2 1 0
0.0472117 15.0012 15.0012 2 1 0
0.0472536 15.0012 15.0012 2 1 0
0.0472956 15.0012 15.0012 2 1 0
0.0473378 15.0011 15.0011 2 1 0
0.0473802 15.0011 15.0011 2 1 0
0.0474228 15.0011 15.0011 2 1 0
0.0474656 15.0011 15.0011 2 1 0
0.0475085 15.0011 15.0011 2 1 0
0.0475516 15.0011 15.0011 2 1 0
0.0475948 15.0011 15.0011 2 1 0
0.0476383 15.0011 15.0011 2 1 0
0.0476819 15.0011 15.0011 2 1 0
0.0477256 15.0011 15.0011 2 1 0
0.0477695 15.0011 15.0011 2 1 0
0.0478136 15.0011 15.0011 2 1 0
0.0478578 15.001 15.001 2 1 0
0.0479021 15.001 15.001 2 1 0
0.0479466 15.001 15.001 2 1 0
0.0479913 15.001 15.001 2 1 0
0.048036 15.001 15.001 2 1 0
0.048081 15.001 15.001 2 1 0
0.048126 15.001 15.001 2 1 0
0.0481712 15.001 15.001 2 1 0
0.0482165 15.001 15.001 2 1 0
0.0482619 15.001 15.001 2 1 0
0.0483074 15.001 15.001 2 1 0
0.0483531 15.001 15.001 2 1 0
0.0483988 15.001 15.001 2 1 0
0.0484447 15.001 15.001 2 1 0
0.0484907 15.0009 15.0009 2 1 0
0.0485368 15.0009 15.0009 2 1 0
0.0485831 15.0009 15.0009 2 1 0
0.0486294 15.0009 15.0009 2 1 0
0.0486758 15.0009 15.0009 2 1 0
0.0487223 15.0009 15.0009 2 1 0
0.048769 15.0009 15.0009 2 1 0
0.0488157 15.0009 15.0009 2 1 0
0.0488625 15.0009 15.0009 2 1 0
0.0489094 15.0009 15.0009 2 1 0
0.0489564 15.0009 15.0009 2 1 0
0.0490035 15.0009 15.0009 2 1 0
0.0490507 15.0009 15.0009 2 1 0
0.0490979 15.0009 15.0009 2 1 0
0.0491453 15.0009 15.0009 2 1 0
0.0491927 15.0009 15.0009 2 1 0
0.0492402 15.0008 15.0008 2 1 0
0.0492878 15.0008 15.0008 2 1 0
0.0493355 15.0008 15.0008 2 1 0
0.0493833 15.0008 15.0008 2 1 0
0.0494311 15.0008 15.0008 2 1 0
0.049479 15.0008 15.0008 2 1 0
0.049527 15.0008 15.0008 2 1 0
0.049575 15.0008 15.0008 2 1 0
0.0496231 15.0008 15.0008 2 1 0
0.0496713 15.0008 15.0008 2 1 0
0.0497196 15.0008 15.0008 2 1 0
0.0497679 15.0008 15.0008 2 1 0
0.0498163 15.0008 15.0008 2 1 0
0.0498647 15.0008 15.0008 2 1 0
0.0499132 15.0008 15.0008 2 1 0
0.0499618 15.0008 15.0008 2 1 0
0.0500104 15.0008 15.0008 2 1 0
0.0500591 15.0008 15.0008 2 1 0
0.0501079 15.0008 15.0008 2 1 0
0.0501567 15.0007 15.0007 2 1 0
0.0502056 15.0007 15.0007 2 1 0
0.0502545 15.0007 15.0007 2 1 0
0.0503035 15.0007 15.0007 2 1 0
0.0503525 15.0007 15.0007 2 1 0
0.0504016 15.0007 15.0007 2 1 0
0.0504507 15.0007 15.0007 2 1 0
0.0504999 15.0007 15.0007 2 1 0
0.0505492 15.0007 15.0007 2 1 0
0.0505985 15.0007 15.0007 2 1 0
0.0506478 15.0007 15.0007 2 1 0
0.0506972 15.0007 15.0007 2 1 0
0.0507466 15.0007 15.0007 2 1 0
0.0507961 15.0007 15.0007 2 1 0
0.0508457 15.0007 15.0007 2 1 0
0.0508953 15.0007 15.0007 2 1 0
0.0509449 15.0007 15.0007 2 1 0
0.0509946 15.0007 15.0007 2 1 0
0.0510443 15.0007 15.0007 2 1 0
0.0510941 15.0007 15.0007 2 1 0
0.0511439 15.0007 15.0007 2 1 0
0.0511937 15.0007 15.0007 2 1 0
0.0512436 15.0007 15.0007 2 1 0
0.0512936 15.0007 15.0007 2 1 0
0.0513435 15.0007 15.0007 2 1 0
0.0513936 15.0006 15.0006 2 1 0
0.0514436 15.0006 15.0006 2 1 0
0.0514937 15.0006 15.0006 2 1 0
0.0515439 15.0006 15.0006 2 1 0
0.051594 15.0006 15.0006 2 1 0
0.0516442 15.0006 15.0006 2 1 0
0.0516945 15.0006 15.0006 2 1 0
0.0517448 15.0006 15.0006 2 1 0
0.0517951 15.0006 15.0006 2 1 0
0.0518455 15.0006 15.0006 2 1 0
0.0518959 15.0006 15.0006 2 1 0
0.0519463 15.0006 15.0006 2 1 0
0.0519968 15.0006 15.0006 2 1 0
0.0520473 15.0006 15.0006 2 1 0
0.0520979 15.0006 15.0006 2 1 0
0.0521485 15.0006 15.0006 2 1 0
0.0521991 15.0006 15.0006 2 1 0
0.0522497 15.0006 15.0006 2 1 0
0.0523004 15.0006 15.0006 2 1 0
0.0523511 15.0006 15.0006 2 1 0
0.0524019 15.0006 15.0006 2 1 0
0.0524527 15.0006 15.0006 2 1 0
0.0525035 15.0006 15.0006 2 1 0
0.0525543 15.0006 15.0006 2 1 0
0.0526052 15.0006 15.0006 2 1 0
0.0526561 15.0006 15.0006 2 1 0
0.0527071 15.0006 15.0006 2 1 0
0.0527581 15.0006 15.0006 2 1 0
0.0528091 15.0006 15.0006 2 1 0
0.0528601 15.0006 15.0006 2 1 0
0.0529112 15.0006 15.0006 2 1 0
0.0529623 15.0006 15.0006 2 1 0
0.0530134 15.0005 15.0005 2 1 0
0.0530646 15.0005 15.0005 2 1 0
0.0531158 15.0005 15.0005 2 1 0
0.053167 15.0005 15.0005 2 1 0
0.0532182 15.0005 15.0005 2 1 0
0.0532695 15.0005 15.0005 2 1 0
0.0533208 15.0005 15.0005 2 1 0
0.0533722 15.0005 15.0005 2 1 0
0.0534235 15.0005 15.0005 2 1 0
0.0534749 15.0005 15.0005 2 1 0
0.0535264 15.0005 15.0005 2 1 0
0.0535778 15.0005 15.0005 2 1 0
0.0536293 15.0005 15.0005 2 1 0
0.0536808 15.0005 15.0005 2 1 0
0.0537323 15.0005 15.0005 2 1 0
0.0537839 15.0005 15.0005 2 1 0
0.0538355 15.0005 15.0005 2 1 0
0.0538871 15.0005 15.0005 2 1 0
0.0539388 15.0005 15.0005 2 1 0
0.0539904 15.0005 15.0005 2 1 0
0.0540421 15.0005 15.0005 2 1 0
0.0540939 15.0005 15.0005 2 1 0
0.0541456 15.0005 15.0005 2 1 0
0.0541974 15.0005 15.0005 2 1 0
0.0542492 15.0005 15.0005 2 1 0
0.0543011 15.0005 15.0005 2 1 0
0.0543529 15.0005 15.0005 2 1 0
0.0544048 15.0005 15.0005 2 1 0
0.0544567 15.0005 15.0005 2 1 0
0.0545087 15.0005 15.0005 2 1 0
0.0545606 15.0005 15.0005 2 1 0
0.0546126 15.0005 15.0005 2 1 0
0.0546646 15.0005 15.0005 2 1 0
0.0547167 15.0005 15.0005 2 1 0
0.0547687 15.0005 15.0005 2 1 0
0.0548208 15.0005 15.0005 2 1 0
0.0548729 15.0005 15.0005 2 1 0
0.0549251 15.0005 15.0005 2 1 0
0.0549773 15.0005 15.0005 2 1 0
0.0550294 15.0005 15.0005 2 1 0
0.0550817 15.0005 15.0005 2 1 0
0.0551339 15.0005 15.0005 2 1 0
0.0551862 15.0005 15.0005 2 1 0
0.0552385 15.0005 15.0005 2 1 0
0.0552908 15.0005 15.0005 2 1 0
0.0553431 15.0004 15.0004 2 1 0
0.0553955 15.0004 15.0004 2 1 0
0.0554479 15.0004 15.0004 2 1 0
0.0555003 15.0004 15.0004 2 1 0
0.0555527 15.0004 15.0004 2 1 0
0.0556052 15.0004 15.0004 2 1 0
0.0556577 15.0004 15.0004 2 1 0
0.0557102 15.0004 15.0004 2 1 0
0.0557627 15.0004 15.0004 2 1 0
0.0558153 15.0004 15.0004 2 1 0
0.0558679 15.0004 15.0004 2 1 0
0.0559205 15.0004 15.0004 2 1 0
0.0559731 15.0004 15.0004 2 1 0
0.0560258 15.0004 15.0004 2 1 0
0.0560784 15.0004 15.0004 2 1 0
0.0561311 15.0004 15.0004 2 1 0
0.0561839 15.0004 15.0004 2 1 0
0.0562366 15.0004 15.0004 2 1 0
0.0562894 15.0004 15.0004 2 1 0
0.0563422 15.0004 15.0004 2 1 0
0.056395 15.0004 15.0004 2 1 0
0.0564479 15.0004 15.0004 2 1 0
0.0565007 15.0004 15.0004 2 1 0
0.0565536 15.0004 15.0004 2 1 0
0.0566065 15.0004 15.0004 2 1 0
0.0566595 15.0004 15.0004 2 1 0
0.0567124 15.0004 15.0004 2 1 0
0.0567654 15.0004 15.0004 2 1 0
0.0568184 15.0004 15.0004 2 1 0
0.0568714 15.0004 15.0004 2 1 0
0.0569245 15.0004 15.0004 2 1 0
0.0569776 15.0004 15.0004 2 1 0
0.0570307 15.0004 15.0004 2 1 0
0.0570838 15.0004 15.0004 2 1 0
0.0571369 15.0004 15.0004 2 1 0
0.0571901 15.0004 15.0004 2 1 0
0.0572433 15.0004 15.0004 2 1 0
0.0572965 15.0004 15.0004 2 1 0
0.0573498 15.0004 15.0004 2 1 0
0.057403 15.0004 15.0004 2 1 0
0.0574563 15.0004 15.0004 2 1 0
0.0575096 15.0004 15.0004 2 1 0
0.0575629 15.0004 15.0004 2 1 0
0.0576163 15.0004 15.0004 2 1 0
0.0576697 15.0004 15.0004 2 1 0
0.0577231 15.0004 15.0004 2 1 0
0.0577765 15.0004 15.0004 2 1 0
0.0578299 15.0004 15.0004 2 1 0
0.0578834 15.0004 15.0004 2 1 0
0.0579369 15.0004 15.0004 2 1 0
0.0579904 15.0004 15.0004 2 1 0
0.0580439 15.0004 15.0004 2 1 0
0.0580975 15.0004 15.0004 2 1 0
0.0581511 15.0004 15.0004 2 1 0
0.0582047 15.0004 15.0004 2 1 0
0.0582583 15.0004 15.0004 2 1 0
0.058312 15.0004 15.0004 2 1 0
0.0583656 15.0004 15.0004 2 1 0
0.0584193 15.0004 15.0004 2 1 0
0.058473 15.0004 15.0004 2 1 0
0.0585268 15.0004 15.0004 2 1 0
0.0585805 15.0004 15.0004 2 1 0
0.0586343 15.0004 15.0004 2 1 0
0.0586881 15.0004 15.0004 2 1 0
0.058742 15.0004 15.0004 2 1 0
0.0587958 15.0004 15.0004 2 1 0
0.0588497 15.0004 15.0004 2 1 0
0.0589036 15.0003 15.0003 2 1 0
0.0589575 15.0003 15.0003 2 1 0
0.0590115 15.0003 15.0003 2 1 0
0.0590654 15.0003 15.0003 2 1 0
0.0591194 15.0003 15.0003 2 1 0
0.0591734 15.0003 15.0003 2 1 0
0.0592275 15.0003 15.0003 2 1 0
0.0592815 15.0003 15.0003 2 1 0
0.0593356 15.0003 15.0003 2 1 0
0.0593897 15.0003 15.0003 2 1 0
0.0594438 15.0003 15.0003 2 1 0
0.059498 15.0003 15.0003 2 1 0
0.0595522 15.0003 15.0003 2 1 0
0.0596064 15.0003 15.0003 2 1 0
0.0596606 15.0003 15.0003 2 1 0
0.0597148 15.0003 15.0003 2 1 0
0.0597691 15.0003 15.0003 2 1 0
0.0598234 15.0003 15.0003 2 1 0
0.0598777 15.0003 15.0003 2 1 0
0.059932 15.0003 15.0003 2 1 0
0.0599864 15.0003 15.0003 2 1 0
0.0600408 15.0003 15.0003 2 1 0
0.0600952 15.0003 15.0003 2 1 0
0.0601496 15.0003 15.0003 2 1 0
0.060204 15.0003 15.0003 2 1 0
0.0602585 15.0003 15.0003 2 1 0
0.060313 15.0003 15.0003 2 1 0
0.0603675 15.0003 15.0003 2 1 0
0.060422 15.0003 15.0003 2 1 0
0.0604766 15.0003 15.0003 2 1 0
0.0605312 15.0003 15.0003 2 1 0
0.0605858 15.0003 15.0003 2 1 0
0.0606404 15.0003 15.0003 2 1 0
0.0606951 15.0003 15.0003 2 1 0
0.0607498 15.0003 15.0003 2 1 0
0.0608045 15.0003 15.0003 2 1 0
0.0608592 15.0003 15.0003 2 1 0
0.0609139 15.0003 15.0003 2 1 0
0.0609687 15.0003 15.0003 2 1 0
0.0610235 15.0003 15.0003 2 1 0
0.0610783 15.0003 15.0003 2 1 0
0.0611332 15.0003 15.0003 2 1 0
0.061188 15.0003 15.0003 2 1 0
0.0612429 15.0003 15.0003 2 1 0
0.0612978 15.0003 15.0003 2 1 0
0.0613528 15.0003 15.0003 2 1 0
0.0614077 15.0003 15.0003 2 1 0
0.0614627 15.0003 15.0003 2 1 0
0.0615177 15.0003 15.0003 2 1 0
0.0615727 15.0003 15.0003 2 1 0
0.0616278 15.0003 15.0003 2 1 0
0.0616829 15.0003 15.0003 2 1 0
0.061738 15.0003 15.0003 2 1 0
0.0617931 15.0003 15.0003 2 1 0
0.0618482 15.0003 15.0003 2 1 0
0.0619034 15.0003 15.0003 2 1 0
0.0619586 15.0003 15.0003 2 1 0
0.0620138 15.0003 15.0003 2 1 0
0.062069 15.0003 15.0003 2 1 0
0.0621243 15.0003 15.0003 2 1 0
0.0621796 15.0003 15.0003 2 1 0
0.0622349 15.0003 15.0003 2 1 0
0.0622902 15.0003 15.0003 2 1 0
0.0623456 15.0003 15.0003 2 1 0
0.062401 15.0003 15.0003 2 1 0
0.0624564 15.0003 15.0003 2 1 0
0.0625118 15.0003 15.0003 2 1 0
0.0625673 15.0003 15.0003 2 1 0
0.0626227 15.0003 15.0003 2 1 0
0.0626783 15.0003 15.0003 2 1 0
0.0627338 15.0003 15.0003 2 1 0
0.0627893 15.0003 15.0003 2 1 0
0.0628449 15.0003 15.0003 2 1 0
0.0629005 15.0003 15.0003 2 1 0
0.0629561 15.0003 15.0003 2 1 0
0.0630118 15.0003 15.0003 2 1 0
0.0630674 15.0003 15.0003 2 1 0
0.0631231 15.0003 15.0003 2 1 0
0.0631789 15.0003 15.0003 2 1 0
0.0632346 15.0003 15.0003 2 1 0
0.0632904 15.0003 15.0003 2 1 0
0.0633462 15.0003 15.0003 2 1 0
0.063402 15.0003 15.0003 2 1 0
0.0634578 15.0003 15.0003 2 1 0
0.0635137 15.0003 15.0003 2 1 0
0.0635696 15.0003 15.0003 2 1 0
0.0636255 15.0003 15.0003 2 1 0
0.0636815 15.0003 15.0003 2 1 0
0.0637374 15.0003 15.0003 2 1 0
0.0637934 15.0003 15.0003 2 1 0
0.0638494 15.0003 15.0003 2 1 0
0.0639055 15.0003 15.0003 2 1 0
0.0639615 15.0003 15.0003 2 1 0
0.0640176 15.0003 15.0003 2 1 0
0.0640737 15.0003 15.0003 2 1 0
0.0641299 15.0003 15.0003 2 1 0
0.0641861 15.0003 15.0003 2 1 0
0.0642422 15.0003 15.0003 2 1 0
0.0642985 15.0003 15.0003 2 1 0
0.0643547 15.0003 15.0003 2 1 0
0.064411 15.0003 15.0003 2 1 0
0.0644673 15.0003 15.0003 2 1 0
0.0645236 15.0003 15.0003 2 1 0
0.0645799 15.0003 15.0003 2 1 0
0.0646363 15.0003 15.0003 2 1 0
0.0646927 15.0003 15.0003 2 1 0
0.0647491 15.0003 15.0003 2 1 0
0.0648056 15.0003 15.0003 2 1 0
0.064862 15.0003 15.0003 2 1 0
0.0649185 15.0003 15.0003 2 1 0
0.064975 15.0003 15.0003 2 1 0
0.0650316 15.0002 15.0002 2 1 0
0.0650882 15.0002 15.0002 2 1 0
0.0651448 15.0002 15.0002 2 1 0
0.0652014 15.0002 15.0002 2 1 0
0.065258 15.0002 15.0002 2 1 0
0.0653147 15.0002 15.0002 2 1 0
0.0653714 15.0002 15.0002 2 1 0
0.0654281 15.0002 15.0002 2 1 0
0.0654849 15.0002 15.0002 2 1 0
0.0655417 15.0002 15.0002 2 1 0
0.0655985 15.0002 15.0002 2 1 0
0.0656553 15.0002 15.0002 2 1 0
0.0657122 15.0002 15.0002 2 1 0
0.0657691 15.0002 15.0002 2 1 0
0.065826 15.0002 15.0002 2 1 0
0.0658829 15.0002 15.0002 2 1 0
0.0659399 15.0002 15.0002 2 1 0
0.0659969 15.0002 15.0002 2 1 0
0.0660539 15.0002 15.0002 2 1 0
0.066111 15.0002 15.0002 2 1 0
0.066168 15.0002 15.0002 2 1 0
0.0662251 15.0002 15.0002 2 1 0
0.0662823 15.0002 15.0002 2 1 0
0.0663394 15.0002 15.0002 2 1 0
0.0663966 15.0002 15.0002 2 1 0
0.0664538 15.0002 15.0002 2 1 0
0.066511 15.0002 15.0002 2 1 0
0.0665683 15.0002 15.0002 2 1 0
0.0666256 15.0002 15.0002 2 1 0
0.0666829 15.0002 15.0002 2 1 0
0.0667402 15.0002 15.0002 2 1 0
0.0667976 15.0002 15.0002 2 1 0
0.066855 15.0002 15.0002 2 1 0
0.0669124 15.0002 15.0002 2 1 0
0.0669699 15.0002 15.0002 2 1 0
0.0670274 15.0002 15.0002 2 1 0
0.0670849 15.0002 15.0002 2 1 0
0.0671424 15.0002 15.0002 2 1 0
0.0672 15.0002 15.0002 2 1 0
0.0672576 15.0002 15.0002 2 1 0
0.0673152 15.0002 15.0002 2 1 0
0.0673729 15.0002 15.0002 2 1 0
0.0674305 15.0002 15.0002 2 1 0
0.0674882 15.0002 15.0002 2 1 0
0.067546 15.0002 15.0002 2 1 0
0.0676037 15.0002 15.0002 2 1 0
0.0676615 15.0002 15.0002 2 1 0
0.0677193 15.0002 15.0002 2 1 0
0.0677772 15.0002 15.0002 2 1 0
0.0678351 15.0002 15.0002 2 1 0
0.067893 15.0002 15.0002 2 1 0
0.0679509 15.0002 15.0002 2 1 0
0.0680089 15.0002 15.0002 2 1 0
0.0680668 15.0002 15.0002 2 1 0
0.0681249 15.0002 15.0002 2 1 0
0.0681829 15.0002 15.0002 2 1 0
0.068241 15.0002 15.0002 2 1 0
0.0682991 15.0002 15.0002 2 1 0
0.0683572 15.0002 15.0002 2 1 0
0.0684154 15.0002 15.0002 2 1 0
0.0684736 15.0002 15.0002 2 1 0
0.0685318 15.0002 15.0002 2 1 0
0.06859 15.0002 15.0002 2 1 0
0.0686483 15.0002 15.0002 2 1 0
0.0687066 15.0002 15.0002 2 1 0
0.068765 15.0002 15.0002 2 1 0
0.0688233 15.0002 15.0002 2 1 0
0.0688817 15.0002 15.0002 2 1 0
0.0689402 15.0002 15.0002 2 1 0
0.0689986 15.0002 15.0002 2 1 0
0.0690571 15.0002 15.0002 2 1 0
0.0691156 15.0002 15.0002 2 1 0
0.0691742 15.0002 15.0002 2 1 0
0.0692328 15.0002 15.0002 2 1 0
0.0692914 15.0002 15.0002 2 1 0
0.06935 15.0002 15.0002 2 1 0
0.0694087 15.0002 15.0002 2 1 0
0.0694674 15.0002 15.0002 2 1 0
0.0695261 15.0002 15.0002 2 1 0
0.0695849 15.0002 15.0002 2 1 0
0.0696437 15.0002 15.0002 2 1 0
0.0697025 15.0002 15.0002 2 1 0
0.0697613 15.0002 15.0002 2 1 0
0.0698202 15.0002 15.0002 2 1 0
0.0698791 15.0002 15.0002 2 1 0
0.0699381 15.0002 15.0002 2 1 0
0.0699971 15.0002 15.0002 2 1 0
0.0700561 15.0002 15.0002 2 1 0
0.0701151 15.0002 15.0002 2 1 0
0.0701742 15.0002 15.0002 2 1 0
0.0702333 15.0002 15.0002 2 1 0
0.0702924 15.0002 15.0002 2 1 0
0.0703516 15.0002 15.0002 2 1 0
0.0704108 15.0002 15.0002 2 1 0
0.07047 15.0002 15.0002 2 1 0
0.0705293 15.0002 15.0002 2 1 0
0.0705886 15.0002 15.0002 2 1 0
0.0706479 15.0002 15.0002 2 1 0
0.0707072 15.0002 15.0002 2 1 0
0.0707666 15.0002 15.0002 2 1 0
0.070826 15.0002 15.0002 2 1 0
0.0708855 15.0002 15.0002 2 1 0
0.070945 15.0002 15.0002 2 1 0
0.0710045 15.0002 15.0002 2 1 0
0.071064 15.0002 15.0002 2 1 0
0.0711236 15.0002 15.0002 2 1 0
0.0711832 15.0002 15.0002 2 1 0
0.0712429 15.0002 15.0002 2 1 0
0.0713026 15.0002 15.0002 2 1 0
0.0713623 15.0002 15.0002 2 1 0
0.071422 15.0002 15.0002 2 1 0
0.0714818 15.0002 15.0002 2 1 0
0.0715416 15.0002 15.0002 2 1 0
0.0716015 15.0002 15.0002 2 1 0
0.0716614 15.0002 15.0002 2 1 0
0.0717213 15.0002 15.0002 2 1 0
0.0717812 15.0002 15.0002 2 1 0
0.0718412 15.0002 15.0002 2 1 0
0.0719012 15.0002 15.0002 2 1 0
0.0719613 15.0002 15.0002 2 1 0
0.0720213 15.0002 15.0002 2 1 0
0.0720815 15.0002 15.0002 2 1 0
0.0721416 15.0002 15.0002 2 1 0
0.0722018 15.0002 15.0002 2 1 0
0.072262 15.0002 15.0002 2 1 0
0.0723223 15.0002 15.0002 2 1 0
0.0723825 15.0002 15.0002 2 1 0
0.0724429 15.0002 15.0002 2 1 0
0.0725032 15.0002 15.0002 2 1 0
0.0725636 15.0002 15.0002 2 1 0
0.072624 15.0002 15.0002 2 1 0
0.0726845 15.0002 15.0002 2 1 0
0.072745 15.0002 15.0002 2 1 0
0.0728055 15.0002 15.0002 2 1 0
0.0728661 15.0002 15.0002 2 1 0
0.0729267 15.0002 15.0002 2 1 0
0.0729873 15.0002 15.0002 2 1 0
0.073048 15.0002 15.0002 2 1 0
0.0731087 15.0002 15.0002 2 1 0
0.0731695 15.0002 15.0002 2 1 0
0.0732302 15.0002 15.0002 2 1 0
0.073291 15.0002 15.0002 2 1 0
0.0733519 15.0002 15.0002 2 1 0
0.0734128 15.0002 15.0002 2 1 0
0.0734737 15.0002 15.0002 2 1 0
0.0735347 15.0002 15.0002 2 1 0
0.0735957 15.0002 15.0002 2 1 0
0.0736567 15.0002 15.0002 2 1 0
0.0737178 15.0002 15.0002 2 1 0
0.0737789 15.0002 15.0002 2 1 0
0.07384 15.0002 15.0002 2 1 0
0.0739012 15.0002 15.0002 2 1 0
0.0739624 15.0002 15.0002 2 1 0
0.0740237 15.0002 15.0002 2 1 0
0.074085 15.0002 15.0002 2 1 0
0.0741463 15.0002 15.0002 2 1 0
0.0742076 15.0002 15.0002 2 1 0
0.074269 15.0002 15.0002 2 1 0
0.0743305 15.0002 15.0002 2 1 0
0.074392 15.0002 15.0002 2 1 0
0.0744535 15.0002 15.0002 2 1 0
0.074515 15.0002 15.0002 2 1 0
0.0745766 15.0002 15.0002 2 1 0
0.0746383 15.0002 15.0002 2 1 0
0.0746999 15.0002 15.0002 2 1 0
0.0747616 15.0002 15.0002 2 1 0
0.0748234 15.0002 15.0002 2 1 0
0.0748852 15.0002 15.0002 2 1 0
0.074947 15.0002 15.0002 2 1 0
0.0750088 15.0002 15.0002 2 1 0
0.0750707 15.0002 15.0002 2 1 0
0.0751327 15.0002 15.0002 2 1 0
0.0751947 15.0002 15.0002 2 1 0
0.0752567 15.0002 15.0002 2 1 0
0.0753187 15.0002 15.0002 2 1 0
0.0753808 15.0002 15.0002 2 1 0
0.075443 15.0002 15.0002 2 1 0
0.0755051 15.0002 15.0002 2 1 0
0.0755673 15.0002 15.0002 2 1 0
0.0756296 15.0002 15.0002 2 1 0
0.0756919 15.0002 15.0002 2 1 0
0.0757542 15.0002 15.0002 2 1 0
0.0758166 15.0002 15.0002 2 1 0
0.075879 15.0002 15.0002 2 1 0
0.0759415 15.0002 15.0002 2 1 0
0.076004 15.0002 15.0002 2 1 0
0.0760665 15.0002 15.0002 2 1 0
0.0761291 15.0002 15.0002 2 1 0
0.0761917 15.0002 15.0002 2 1 0
0.0762544 15.0002 15.0002 2 1 0
0.0763171 15.0002 15.0002 2 1 0
0.0763798 15.0002 15.0002 2 1 0
0.0764426 15.0002 15.0002 2 1 0
0.0765054 15.0002 15.0002 2 1 0
0.0765683 15.0002 15.0002 2 1 0
0.0766312 15.0002 15.0002 2 1 0
0.0766941 15.0002 15.0002 2 1 0
0.0767571 15.0002 15.0002 2 1 0
0.0768202 15.0002 15.0002 2 1 0
0.0768832 15.0002 15.0002 2 1 0
0.0769464 15.0002 15.0002 2 1 0
0.0770095 15.0002 15.0002 2 1 0
0.0770727 15.0002 15.0002 2 1 0
0.077136 15.0002 15.0002 2 1 0
0.0771993 15.0002 15.0002 2 1 0
0.0772626 15.0002 15.0002 2 1 0
0.077326 15.0002 15.0002 2 1 0
0.0773894 15.0002 15.0002 2 1 0
0.0774528 15.0002 15.0002 2 1 0
0.0775163 15.0002 15.0002 2 1 0
0.0775799 15.0002 15.0002 2 1 0
0.0776435 15.0002 15.0002 2 1 0
0.0777071 15.0002 15.0002 2 1 0
0.0777708 15.0002 15.0002 2 1 0
0.0778345 15.0002 15.0002 2 1 0
0.0778983 15.0002 15.0002 2 1 0
0.0779621 15.0002 15.0002 2 1 0
0.078026 15.0002 15.0002 2 1 0
0.0780899 15.0002 15.0002 2 1 0
0.0781538 15.0002 15.0002 2 1 0
0.0782178 15.0002 15.0002 2 1 0
0.0782818 15.0002 15.0002 2 1 0
0.0783459 15.0002 15.0002 2 1 0
0.07841 15.0002 15.0002 2 1 0
0.0784742 15.0002 15.0002 2 1 0
0.0785384 15.0002 15.0002 2 1 0
0.0786027 15.0002 15.0002 2 1 0
0.078667 15.0002 15.0002 2 1 0
0.0787314 15.0002 15.0002 2 1 0
0.0787958 15.0002 15.0002 2 1 0
0.0788602 15.0002 15.0002 2 1 0
0.0789247 15.0002 15.0002 2 1 0
0.0789893 15.0002 15.0002 2 1 0
0.0790538 15.0002 15.0002 2 1 0
0.0791185 15.0001 15.0001 2 1 0
0.0791832 15.0001 15.0001 2 1 0
0.0792479 15.0001 15.0001 2 1 0
0.0793127 15.0001 15.0001 2 1 0
0.0793775 15.0001 15.0001 2 1 0
0.0794424 15.0001 15.0001 2 1 0
0.0795073 15.0001 15.0001 2 1 0
0.0795722 15.0001 15.0001 2 1 0
0.0796373 15.0001 15.0001 2 1 0
0.0797023 15.0001 15.0001 2 1 0
0.0797674 15.0001 15.0001 2 1 0
0.0798326 15.0001 15.0001 2 1 0
0.0798978 15.0001 15.0001 2 1 0
0.079963 15.0001 15.0001 2 1 0
0.0800284 15.0001 15.0001 2 1 0
0.0800937 15.0001 15.0001 2 1 0
0.0801591 15.0001 15.0001 2 1 0
0.0802246 15.0001 15.0001 2 1 0
0.0802901 15.0001 15.0001 2 1 0
0.0803556 15.0001 15.0001 2 1 0
0.0804212 15.0001 15.0001 2 1 0
0.0804869 15.0001 15.0001 2 1 0
0.0805526 15.0001 15.0001 2 1 0
0.0806183 15.0001 15.0001 2 1 0
0.0806841 15.0001 15.0001 2 1 0
0.08075 15.0001 15.0001 2 1 0
0.0808159 15.0001 15.0001 2 1 0
0.0808818 15.0001 15.0001 2 1 0
0.0809478 15.0001 15.0001 2 1 0
0.0810139 15.0001 15.0001 2 1 0
0.08108 15.0001 15.0001 2 1 0
0.0811461 15.0001 15.0001 2 1 0
0.0812123 15.0001 15.0001 2 1 0
0.0812786 15.0001 15.0001 2 1 0
0.0813449 15.0001 15.0001 2 1 0
0.0814113 15.0001 15.0001 2 1 0
0.0814777 15.0001 15.0001 2 1 0
0.0815442 15.0001 15.0001 2 1 0
0.0816107 15.0001 15.0001 2 1 0
0.0816773 15.0001 15.0001 2 1 0
0.0817439 15.0001 15.0001 2 1 0
0.0818106 15.0001 15.0001 2 1 0
0.0818773 15.0001 15.0001 2 1 0
0.0819441 15.0001 15.0001 2 1 0
0.0820109 15.0001 15.0001 2 1 0
0.0820778 15.0001 15.0001 2 1 0
0.0821448 15.0001 15.0001 2 1 0
0.0822118 15.0001 15.0001 2 1 0
0.0822788 15.0001 15.0001 2 1 0
0.0823459 15.0001 15.0001 2 1 0
0.0824131 15.0001 15.0001 2 1 0
0.0824803 15.0001 15.0001 2 1 0
0.0825476 15.0001 15.0001 2 1 0
0.0826149 15.0001 15.0001 2 1 0
0.0826823 15.0001 15.0001 2 1 0
0.0827497 15.0001 15.0001 2 1 0
0.0828172 15.0001 15.0001 2 1 0
0.0828848 15.0001 15.0001 2 1 0
0.0829524 15.0001 15.0001 2 1 0
0.08302 15.0001 15.0001 2 1 0
0.0830877 15.0001 15.0001 2 1 0
0.0831555 15.0001 15.0001 2 1 0
0.0832233 15.0001 15.0001 2 1 0
0.0832912 15.0001 15.0001 2 1 0
0.0833592 15.0001 15.0001 2 1 0
0.0834272 15.0001 15.0001 2 1 0
0.0834952 15.0001 15.0001 2 1 0
0.0835633 15.0001 15.0001 2 1 0
0.0836315 15.0001 15.0001 2 1 0
0.0836997 15.0001 15.0001 2 1 0
0.083768 15.0001 15.0001 2 1 0
0.0838364 15.0001 15.0001 2 1 0
0.0839048 15.0001 15.0001 2 1 0
0.0839732 15.0001 15.0001 2 1 0
0.0840417 15.0001 15.0001 2 1 0
0.0841103 15.0001 15.0001 2 1 0
0.0841789 15.0001 15.0001 2 1 0
0.0842476 15.0001 15.0001 2 1 0
0.0843164 15.0001 15.0001 2 1 0
0.0843852 15.0001 15.0001 2 1 0
0.0844541 15.0001 15.0001 2 1 0
0.084523 15.0001 15.0001 2 1 0
0.084592 15.0001 15.0001 2 1 0
0.0846611 15.0001 15.0001 2 1 0
0.0847302 15.0001 15.0001 2 1 0
0.0847993 15.0001 15.0001 2 1 0
0.0848686 15.0001 15.0001 2 1 0
0.0849379 15.0001 15.0001 2 1 0
0.0850072 15.0001 15.0001 2 1 0
0.0850766 15.0001 15.0001 2 1 0
0.0851461 15.0001 15.0001 2 1 0
0.0852157 15.0001 15.0001 2 1 0
0.0852853 15.0001 15.0001 2 1 0
0.0853549 15.0001 15.0001 2 1 0
0.0854247 15.0001 15.0001 2 1 0
0.0854944 15.0001 15.0001 2 1 0
0.0855643 15.0001 15.0001 2 1 0
0.0856342 15.0001 15.0001 2 1 0
0.0857042 15.0001 15.0001 2 1 0
0.0857742 15.0001 15.0001 2 1 0
0.0858443 15.0001 15.0001 2 1 0
0.0859145 15.0001 15.0001 2 1 0
0.0859847 15.0001 15.0001 2 1 0
0.086055 15.0001 15.0001 2 1 0
0.0861254 15.0001 15.0001 2 1 0
0.0861958 15.0001 15.0001 2 1 0
0.0862663 15.0001 15.0001 2 1 0
0.0863368 15.0001 15.0001 2 1 0
0.0864075 15.0001 15.0001 2 1 0
0.0864781 15.0001 15.0001 2 1 0
0.0865489 15.0001 15.0001 2 1 0
0.0866197 15.0001 15.0001 2 1 0
0.0866906 15.0001 15.0001 2 1 0
0.0867615 15.0001 15.0001 2 1 0
0.0868325 15.0001 15.0001 2 1 0
0.0869036 15.0001 15.0001 2 1 0
0.0869747 15.0001 15.0001 2 1 0
0.0870459 15.0001 15.0001 2 1 0
0.0871172 15.0001 15.0001 2 1 0
0.0871886 15.0001 15.0001 2 1 0
0.08726 15.0001 15.0001 2 1 0
0.0873314 15.0001 15.0001 2 1 0
0.087403 15.0001 15.0001 2 1 0
0.0874746 15.0001 15.0001 2 1 0
0.0875463 15.0001 15.0001 2 1 0
0.087618 15.0001 15.0001 2 1 0
0.0876898 15.0001 15.0001 2 1 0
0.0877617 15.0001 15.0001 2 1 0
0.0878337 15.0001 15.0001 2 1 0
0.0879057 15.0001 15.0001 2 1 0
0.0879778 15.0001 15.0001 2 1 0
0.08805 15.0001 15.0001 2 1 0
0.0881222 15.0001 15.0001 2 1 0
0.0881945 15.0001 15.0001 2 1 0
0.0882669 15.0001 15.0001 2 1 0
0.0883393 15.0001 15.0001 2 1 0
0.0884118 15.0001 15.0001 2 1 0
0.0884844 15.0001 15.0001 2 1 0
0.088557 15.0001 15.0001 2 1 0
0.0886298 15.0001 15.0001 2 1 0
0.0887026 15.0001 15.0001 2 1 0
0.0887754 15.0001 15.0001 2 1 0
0.0888484 15.0001 15.0001 2 1 0
0.0889214 15.0001 15.0001 2 1 0
0.0889945 15.0001 15.0001 2 1 0
0.0890676 15.0001 15.0001 2 1 0
0.0891408 15.0001 15.0001 2 1 0
0.0892141 15.0001 15.0001 2 1 0
0.0892875 15.0001 15.0001 2 1 0
0.089361 15.0001 15.0001 2 1 0
0.0894345 15.0001 15.0001 2 1 0
0.0895081 15.0001 15.0001 2 1 0
0.0895817 15.0001 15.0001 2 1 0
0.0896555 15.0001 15.0001 2 1 0
0.0897293 15.0001 15.0001 2 1 0
0.0898032 15.0001 15.0001 2 1 0
0.0898771 15.0001 15.0001 2 1 0
0.0899512 15.0001 15.0001 2 1 0
0.0900253 15.0001 15.0001 2 1 0
0.0900995 15.0001 15.0001 2 1 0
0.0901738 15.0001 15.0001 2 1 0
0.0902481 15.0001 15.0001 2 1 0
0.0903225 15.0001 15.0001 2 1 0
0.090397 15.0001 15.0001 2 1 0
0.0904716 15.0001 15.0001 2 1 0
0.0905462 15.0001 15.0001 2 1 0
0.0906209 15.0001 15.0001 2 1 0
0.0906957 15.0001 15.0001 2 1 0
0.0907706 15.0001 15.0001 2 1 0
0.0908456 15.0001 15.0001 2 1 0
0.0909206 15.0001 15.0001 2 1 0
0.0909957 15.0001 15.0001 2 1 0
0.0910709 15.0001 15.0001 2 1 0
0.0911462 15.0001 15.0001 2 1 0
0.0912215 15.0001 15.0001 2 1 0
0.0912969 15.0001 15.0001 2 1 0
0.0913724 15.0001 15.0001 2 1 0
0.091448 15.0001 15.0001 2 1 0
0.0915237 15.0001 15.0001 2 1 0
0.0915994 15.0001 15.0001 2 1 0
0.0916752 15.0001 15.0001 2 1 0
0.0917511 15.0001 15.0001 2 1 0
0.0918271 15.0001 15.0001 2 1 0
0.0919032 15.0001 15.0001 2 1 0
0.0919793 15.0001 15.0001 2 1 0
0.0920555 15.0001 15.0001 2 1 0
0.0921319 15.0001 15.0001 2 1 0
0.0922082 15.0001 15.0001 2 1 0
0.0922847 15.0001 15.0001 2 1 0
0.0923613 15.0001 15.0001 2 1 0
0.0924379 15.0001 15.0001 2 1 0
0.0925146 15.0001 15.0001 2 1 0
0.0925914 15.0001 15.0001 2 1 0
0.0926683 15.0001 15.0001 2 1 0
0.0927452 15.0001 15.0001 2 1 0
0.0928223 15.0001 15.0001 2 1 0
0.0928994 15.0001 15.0001 2 1 0
0.0929766 15.0001 15.0001 2 1 0
0.0930539 15.0001 15.0001 2 1 0
0.0931313 15.0001 15.0001 2 1 0
0.0932088 15.0001 15.0001 2 1 0
0.0932863 15.0001 15.0001 2 1 0
0.0933639 15.0001 15.0001 2 1 0
0.0934417 15.0001 15.0001 2 1 0
0.0935195 15.0001 15.0001 2 1 0
0.0935973 15.0001 15.0001 2 1 0
0.0936753 15.0001 15.0001 2 1 0
0.0937534 15.0001 15.0001 2 1 0
0.0938315 15.0001 15.0001 2 1 0
0.0939098 15.0001 15.0001 2 1 0
0.0939881 15.0001 15.0001 2 1 0
0.0940665 15.0001 15.0001 2 1 0
0.094145 15.0001 15.0001 2 1 0
0.0942236 15.0001 15.0001 2 1 0
0.0943022 15.0001 15.0001 2 1 0
0.094381 15.0001 15.0001 2 1 0
0.0944598 15.0001 15.0001 2 1 0
0.0945387 15.0001 15.0001 2 1 0
0.0946178 15.0001 15.0001 2 1 0
0.0946969 15.0001 15.0001 2 1 0
0.0947761 15.0001 15.0001 2 1 0
0.0948553 15.0001 15.0001 2 1 0
0.0949347 15.0001 15.0001 2 1 0
0.0950142 15.0001 15.0001 2 1 0
0.0950937 15.0001 15.0001 2 1 0
0.0951734 15.0001 15.0001 2 1 0
0.0952531 15.0001 15.0001 2 1 0
0.0953329 15.0001 15.0001 2 1 0
0.0954128 15.0001 15.0001 2 1 0
0.0954928 15.0001 15.0001 2 1 0
0.0955729 15.0001 15.0001 2 1 0
0.0956531 15.0001 15.0001 2 1 0
0.0957334 15.0001 15.0001 2 1 0
0.0958138 15.0001 15.0001 2 1 0
0.0958942 15.0001 15.0001 2 1 0
0.0959748 15.0001 15.0001 2 1 0
0.0960554 15.0001 15.0001 2 1 0
0.0961361 15.0001 15.0001 2 1 0
0.096217 15.0001 15.0001 2 1 0
0.0962979 15.0001 15.0001 2 1 0
0.0963789 15.0001 15.0001 2 1 0
0.09646 15.0001 15.0001 2 1 0
0.0965412 15.0001 15.0001 2 1 0
0.0966225 15.0001 15.0001 2 1 0
0.0967039 15.0001 15.0001 2 1 0
0.0967853 15.0001 15.0001 2 1 0
0.0968669 15.0001 15.0001 2 1 0
0.0969486 15.0001 15.0001 2 1 0
0.0970303 15.0001 15.0001 2 1 0
0.0971122 15.0001 15.0001 2 1 0
0.0971941 15.0001 15.0001 2 1 0
0.0972762 15.0001 15.0001 2 1 0
0.0973583 15.0001 15.0001 2 1 0
0.0974405 15.0001 15.0001 2 1 0
0.0975229 15.0001 15.0001 2 1 0
0.0976053 15.0001 15.0001 2 1 0
0.0976878 15.0001 15.0001 2 1 0
0.0977704 15.0001 15.0001 2 1 0
0.0978532 15.0001 15.0001 2 1 0
0.097936 15.0001 15.0001 2 1 0
0.0980189 15.0001 15.0001 2 1 0
0.0981019 15.0001 15.0001 2 1 0
0.098185 15.0001 15.0001 2 1 0
0.0982682 15.0001 15.0001 2 1 0
0.0983515 15.0001 15.0001 2 1 0
0.0984349 15.0001 15.0001 2 1 0
0.0985183 15.0001 15.0001 2 1 0
0.0986019 15.0001 15.0001 2 1 0
0.0986856 15.0001 15.0001 2 1 0
0.0987694 15.0001 15.0001 2 1 0
0.0988533 15.0001 15.0001 2 1 0
0.0989373 15.0001 15.0001 2 1 0
0.0990213 15.0001 15.0001 2 1 0
0.0991055 15.0001 15.0001 2 1 0
0.0991898 15.0001 15.0001 2 1 0
0.0992742 15.0001 15.0001 2 1 0
0.0993586 15.0001 15.0001 2 1 0
0.0994432 15.0001 15.0001 2 1 0
0.0995279 15.0001 15.0001 2 1 0
0.0996127 15.0001 15.0001 2 1 0
0.0996975 15.0001 15.0001 2 1 0
0.0997825 15.0001 15.0001 2 1 0
0.0998676 15.0001 15.0001 2 1 0
0.0999527 15.0001 15.0001 2 1 0
0.100038 15.0001 15.0001 2 1 0
0.100123 15.0001 15.0001 2 1 0
0.100209 15.0001 15.0001 2 1 0
0.100294 15.0001 15.0001 2 1 0
0.10038 15.0001 15.0001 2 1 0
0.100466 15.0001 15.0001 2 1 0
0.100552 15.0001 15.0001 2 1 0
0.100638 15.0001 15.0001 2 1 0
0.100724 15.0001 15.0001 2 1 0
0.10081 15.0001 15.0001 2 1 0
0.100896 15.0001 15.0001 2 1 0
0.100983 15.0001 15.0001 2 1 0
0.101069 15.0001 15.0001 2 1 0
0.101156 15.0001 15.0001 2 1 0
0.101242 15.0001 15.0001 2 1 0
0.101329 15.0001 15.0001 2 1 0
0.101416 15.0001 15.0001 2 1 0
0.101503 15.0001 15.0001 2 1 0
0.10159 15.0001 15.0001 2 1 0
0.101677 15.0001 15.0001 2 1 0
0.101765 15.0001 15.0001 2 1 0
0.101852 15.0001 15.0001 2 1 0
0.10194 15.0001 15.0001 2 1 0
0.102027 15.0001 15.0001 2 1 0
0.102115 15.0001 15.0001 2 1 0
0.102203 15.0001 15.0001 2 1 0
0.102291 15.0001 15.0001 2 1 0
0.102379 15.0001 15.0001 2 1 0
0.102467 15.0001 15.0001 2 1 0
0.102555 15.0001 15.0001 2 1 0
0.102643 15.0001 15.0001 2 1 0
0.102732 15.0001 15.0001 2 1 0
0.10282 15.0001 15.0001 2 1 0
0.102909 15.0001 15.0001 2 1 0
0.102998 15.0001 15.0001 2 1 0
0.103087 15.0001 15.0001 2 1 0
0.103176 15.0001 15.0001 2 1 0
0.103265 15.0001 15.0001 2 1 0
0.103354 15.0001 15.0001 2 1 0
0.103443 15.0001 15.0001 2 1 0
0.103532 15.0001 15.0001 2 1 0
0.103622 15.0001 15.0001 2 1 0
0.103712 15.0001 15.0001 2 1 0
0.103801 15.0001 15.0001 2 1 0
0.103891 15.0001 15.0001 2 1 0
0.103981 15.0001 15.0001 2 1 0
0.104071 15.0001 15.0001 2 1 0
0.104161 15.0001 15.0001 2 1 0
0.104251 15.0001 15.0001 2 1 0
0.104341 15.0001 15.0001 2 1 0
0.104432 15.0001 15.0001 2 1 0
0.104522 15.0001 15.0001 2 1 0
0.104613 15.0001 15.0001 2 1 0
0.104704 15.0001 15.0001 2 1 0
0.104795 15.0001 15.0001 2 1 0
0.104885 15.0001 15.0001 2 1 0
0.104976 15.0001 15.0001 2 1 0
0.105068 15.0001 15.0001 2 1 0
0.105159 15.0001 15.0001 2 1 0
0.10525 15.0001 15.0001 2 1 0
0.105342 15.0001 15.0001 2 1 0
0.105433 15.0001 15.0001 2 1 0
0.105525 15.0001 15.0001 2 1 0
0.105617 15.0001 15.0001 2 1 0
0.105708 15.0001 15.0001 2 1 0
0.1058 15.0001 15.0001 2 1 0
0.105892 15.0001 15.0001 2 1 0
0.105985 15.0001 15.0001 2 1 0
0.106077 15.0001 15.0001 2 1 0
0.106169 15.0001 15.0001 2 1 0
0.106262 15.0001 15.0001 2 1 0
0.106354 15.0001 15.0001 2 1 0
0.106447 15.0001 15.0001 2 1 0
0.10654 15.0001 15.0001 2 1 0
0.106632 15.0001 15.0001 2 1 0
0.106725 15.0001 15.0001 2 1 0
0.106819 15.0001 15.0001 2 1 0
0.106912 15.0001 15.0001 2 1 0
0.107005 15.0001 15.0001 2 1 0
0.107098 15.0001 15.0001 2 1 0
0.107192 15.0001 15.0001 2 1 0
0.107285 15.0001 15.0001 2 1 0
0.107379 15.0001 15.0001 2 1 0
0.107473 15.0001 15.0001 2 1 0
0.107567 15.0001 15.0001 2 1 0
0.107661 15.0001 15.0001 2 1 0
0.107755 15.0001 15.0001 2 1 0
0.107849 15.0001 15.0001 2 1 0
0.107943 15.0001 15.0001 2 1 0
0.108038 15.0001 15.0001 2 1 0
0.108132 15.0001 15.0001 2 1 0
0.108227 15.0001 15.0001 2 1 0
0.108321 15.0001 15.0001 2 1 0
0.108416 15.0001 15.0001 2 1 0
0.108511 15.0001 15.0001 2 1 0
0.108606 15.0001 15.0001 2 1 0
0.108701 15.0001 15.0001 2 1 0
0.108796 15.0001 15.0001 2 1 0
0.108891 15.0001 15.0001 2 1 0
0.108987 15.0001 15.0001 2 1 0
0.109082 15.0001 15.0001 2 1 0
0.109178 15.0001 15.0001 2 1 0
0.109273 15.0001 15.0001 2 1 0
0.109369 15.0001 15.0001 2 1 0
0.109465 15.0001 15.0001 2 1 0
0.109561 15.0001 15.0001 2 1 0
0.109657 15.0001 15.0001 2 1 0
0.109753 15.0001 15.0001 2 1 0
0.109849 15.0001 15.0001 2 1 0
0.109945 15.0001 15.0001 2 1 0
0.110042 15.0001 15.0001 2 1 0
0.110138 15.0001 15.0001 2 1 0
0.110235 15.0001 15.0001 2 1 0
0.110331 15.0001 15.0001 2 1 0
0.110428 15.0001 15.0001 2 1 0
0.110525 15.0001 15.0001 2 1 0
0.110622 15.0001 15.0001 2 1 0
0.110719 15.0001 15.0001 2 1 0
0.110816 15.0001 15.0001 2 1 0
0.110913 15.0001 15.0001 2 1 0
0.11101 15.0001 15.0001 2 1 0
0.111108 15.0001 15.0001 2 1 0
0.111205 15.0001 15.0001 2 1 0
0.111303 15.0001 15.0001 2 1 0
0.1114 15.0001 15.0001 2 1 0
0.111498 15.0001 15.0001 2 1 0
0.111596 15.0001 15.0001 2 1 0
0.111694 15.0001 15.0001 2 1 0
0.111792 15.0001 15.0001 2 1 0
0.11189 15.0001 15.0001 2 1 0
0.111988 15.0001 15.0001 2 1 0
0.112086 15.0001 15.0001 2 1 0
0.112184 15.0001 15.0001 2 1 0
0.112283 15.0001 15.0001 2 1 0
0.112381 15.0001 15.0001 2 1 0
0.11248 15.0001 15.0001 2 1 0
0.112578 15.0001 15.0001 2 1 0
0.112677 15.0001 15.0001 2 1 0
0.112776 15.0001 15.0001 2 1 0
0.112874 15.0001 15.0001 2 1 0
0.112973 15.0001 15.0001 2 1 0
0.113072 15.0001 15.0001 2 1 0
0.113172 15.0001 15.0001 2 1 0
0.113271 15.0001 15.0001 2 1 0
0.11337 15.0001 15.0001 2 1 0
0.113469 15.0001 15.0001 2 1 0
0.113569 15.0001 15.0001 2 1 0
0.113668 15.0001 15.0001 2 1 0
0.113768 15.0001 15.0001 2 1 0
0.113867 15.0001 15.0001 2 1 0
0.113967 15.0001 15.0001 2 1 0
0.114067 15.0001 15.0001 2 1 0
0.114166 15.0001 15.0001 2 1 0
0.114266 15.0001 15.0001 2 1 0
0.114366 15.0001 15.0001 2 1 0
0.114466 15.0001 15.0001 2 1 0
0.114566 15.0001 15.0001 2 1 0
0.114667 15.0001 15.0001 2 1 0
0.114767 15.0001 15.0001 2 1 0
0.114867 15.0001 15.0001 2 1 0
0.114967 15.0001 15.0001 2 1 0
0.115068 15.0001 15.0001 2 1 0
0.115168 15.0001 15.0001 2 1 0
0.115269 15.0001 15.0001 2 1 0
0.115369 15.0001 15.0001 2 1 0
0.11547 15.0001 15.0001 2 1 0
0.115571 15.0001 15.0001 2 1 0
0.115672 15.0001 15.0001 2 1 0
0.115773 15.0001 15.0001 2 1 0
0.115873 15.0001 15.0001 2 1 0
0.115974 15.0001 15.0001 2 1 0
0.116075 15.0001 15.0001 2 1 0
0.116176 15.0001 15.0001 2 1 0
0.116278 15.0001 15.0001 2 1 0
0.116379 15.0001 15.0001 2 1 0
0.11648 15.0001 15.0001 2 1 0
0.116581 15.0001 15.0001 2 1 0
0.116683 15.0001 15.0001 2 1 0
0.116784 15.0001 15.0001 2 1 0
0.116886 15.0001 15.0001 2 1 0
0.116987 15.0001 15.0001 2 1 0
0.117089 15.0001 15.0001 2 1 0
0.11719 15.0001 15.0001 2 1 0
0.117292 15.0001 15.0001 2 1 0
0.117394 15.0001 15.0001 2 1 0
0.117495 15.0001 15.0001 2 1 0
0.117597 15.0001 15.0001 2 1 0
0.117699 15.0001 15.0001 2 1 0
0.117801 15.0001 15.0001 2 1 0
0.117903 15.0001 15.0001 2 1 0
0.118005 15.0001 15.0001 2 1 0
0.118107 15.0001 15.0001 2 1 0
0.118209 15.0001 15.0001 2 1 0
0.118311 15.0001 15.0001 2 1 0
0.118413 15.0001 15.0001 2 1 0
0.118515 15.0001 15.0001 2 1 0
0.118617 15.0001 15.0001 2 1 0
0.118719 15.0001 15.0001 2 1 0
0.118822 15.0001 15.0001 2 1 0
0.118924 15.0001 15.0001 2 1 0
0.119026 15.0001 15.0001 2 1 0
0.119129 15.0001 15.0001 2 1 0
0.119231 15.0001 15.0001 2 1 0
0.119333 15.0001 15.0001 2 1 0
0.119436 15.0001 15.0001 2 1 0
0.119538 15.0001 15.0001 2 1 0
0.119641 15.0001 15.0001 2 1 0
0.119743 15.0001 15.0001 2 1 0
0.119846 15.0001 15.0001 2 1 0
0.119949 15.0001 15.0001 2 1 0
0.120051 15.0001 15.0001 2 1 0
0.120154 15.0001 15.0001 2 1 0
0.120256 15.0001 15.0001 2 1 0
0.120359 15.0001 15.0001 2 1 0
0.120462 15.0001 15.0001 2 1 0
0.120564 15.0001 15.0001 2 1 0
0.120667 15.0001 15.0001 2 1 0
0.12077 15.0001 15.0001 2 1 0
0.120873 15.0001 15.0001 2 1 0
0.120976 15.0001 15.0001 2 1 0
0.121078 15.0001 15.0001 2 1 0
0.121181 15.0001 15.0001 2 1 0
0.121284 15.0001 15.0001 2 1 0
0.121387 15.0001 15.0001 2 1 0
0.12149 15.0001 15.0001 2 1 0
0.121592 15.0001 15.0001 2 1 0
0.121695 15.0001 15.0001 2 1 0
0.121798 15.0001 15.0001 2 1 0
0.121901 15.0001 15.0001 2 1 0
0.122004 15.0001 15.0001 2 1 0
0.122107 15.0001 15.0001 2 1 0
0.12221 15.0001 15.0001 2 1 0
0.122313 15.0001 15.0001 2 1 0
0.122416 15.0001 15.0001 2 1 0
0.122519 15.0001 15.0001 2 1 0
0.122621 15.0001 15.0001 2 1 0
0.122724 15.0001 15.0001 2 1 0
0.122827 15.0001 15.0001 2 1 0
0.12293 15.0001 15.0001 2 1 0
0.123033 15.0001 15.0001 2 1 0
0.123136 15.0001 15.0001 2 1 0
0.123239 15.0001 15.0001 2 1 0
0.123342 15.0001 15.0001 2 1 0
0.123445 15.0001 15.0001 2 1 0
0.123548 15.0001 15.0001 2 1 0
0.12365 15.0001 15.0001 2 1 0
0.123753 15.0001 15.0001 2 1 0
0.123856 15.0001 15.0001 2 1 0
0.123959 15.0001 15.0001 2 1 0
0.124062 15.0001 15.0001 2 1 0
0.124165 15.0001 15.0001 2 1 0
0.124268 15.0001 15.0001 2 1 0
0.12437 15.0001 15.0001 2 1 0
0.124473 15.0001 15.0001 2 1 0
0.124576 15.0001 15.0001 2 1 0
0.124679 15.0001 15.0001 2 1 0
0.124781 15.0001 15.0001 2 1 0
0.124884 15.0001 15.0001 2 1 0
0.124987 15.0001 15.0001 2 1 0
0.125089 15.0001 15.0001 2 1 0
0.125192 15.0001 15.0001 2 1 0
0.125295 15.0001 15.0001 2 1 0
0.125397 15.0001 15.0001 2 1 0
0.1255 15.0001 15.0001 2 1 0
0.125603 15.0001 15.0001 2 1 0
0.125705 15.0001 15.0001 2 1 0
0.125808 15.0001 15.0001 2 1 0
0.12591 15.0001 15.0001 2 1 0
0.126013 15.0001 15.0001 2 1 0
0.126115 15.0001 15.0001 2 1 0
0.126217 15.0001 15.0001 2 1 0
0.12632 15.0001 15.0001 2 1 0
0.126422 15.0001 15.0001 2 1 0
0.126524 15.0001 15.0001 2 1 0
0.126627 15.0001 15.0001 2 1 0
0.126729 15.0001 15.0001 2 1 0
0.126831 15.0001 15.0001 2 1 0
0.126933 15.0001 15.0001 2 1 0
0.127035 15.0001 15.0001 2 1 0
0.127138 15.0001 15.0001 2 1 0
0.12724 15.0001 15.0001 2 1 0
0.127342 15.0001 15.0001 2 1 0
0.127444 15.0001 15.0001 2 1 0
0.127546 15.0001 15.0001 2 1 0
0.127648 15.0001 15.0001 2 1 0
0.127749 15.0001 15.0001 2 1 0
0.127851 15.0001 15.0001 2 1 0
0.127953 15.0001 15.0001 2 1 0
0.128055 15.0001 15.0001 2 1 0
0.128156 15.0001 15.0001 2 1 0
0.128258 15.0001 15.0001 2 1 0
0.12836 15.0001 15.0001 2 1 0
0.128461 15.0001 15.0001 2 1 0
0.128563 15.0001 15.0001 2 1 0
0.128664 15.0001 15.0001 2 1 0
0.128766 15.0001 15.0001 2 1 0
0.128867 15.0001 15.0001 2 1 0
0.128968 15.0001 15.0001 2 1 0
0.12907 15.0001 15.0001 2 1 0
0.129171 15.0001 15.0001 2 1 0
0.129272 15.0001 15.0001 2 1 0
0.129373 15.0001 15.0001 2 1 0
0.129474 15.0001 15.0001 2 1 0
0.129575 15.0001 15.0001 2 1 0
0.129676 15.0001 15.0001 2 1 0
0.129777 15.0001 15.0001 2 1 0
0.129878 15.0001 15.0001 2 1 0
0.129979 15.0001 15.0001 2 1 0
0.13008 15.0001 15.0001 2 1 0
0.13018 15.0001 15.0001 2 1 0
0.130281 15.0001 15.0001 2 1 0
0.130381 15.0001 15.0001 2 1 0
0.130482 15.0001 15.0001 2 1 0
0.130582 15.0001 15.0001 2 1 0
0.130683 15.0001 15.0001 2 1 0
0.130783 15.0001 15.0001 2 1 0
0.130883 15.0001 15.0001 2 1 0
0.130983 15.0001 15.0001 2 1 0
0.131084 15.0001 15.0001 2 1 0
0.131184 15.0001 15.0001 2 1 0
0.131284 15.0001 15.0001 2 1 0
0.131383 15.0001 15.0001 2 1 0
0.131483 15.0001 15.0001 2 1 0
0.131583 15.0001 15.0001 2 1 0
0.131683 15.0001 15.0001 2 1 0
0.131783 15.0001 15.0001 2 1 0
0.131882 15.0001 15.0001 2 1 0
0.131982 15.0001 15.0001 2 1 0
0.132081 15.0001 15.0001 2 1 0
0.13218 15.0001 15.0001 2 1 0
0.13228 15.0001 15.0001 2 1 0
0.132379 15.0001 15.0001 2 1 0
0.132478 15.0001 15.0001 2 1 0
0.132577 15.0001 15.0001 2 1 0
0.132676 15.0001 15.0001 2 1 0
0.132775 15.0001 15.0001 2 1 0
0.132874 15.0001 15.0001 2 1 0
0.132973 15.0001 15.0001 2 1 0
0.133072 15.0001 15.0001 2 1 0
0.13317 15.0001 15.0001 2 1 0
0.133269 15.0001 15.0001 2 1 0
0.133367 15.0001 15.0001 2 1 0
0.133466 15.0001 15.0001 2 1 0
0.133564 15.0001 15.0001 2 1 0
0.133662 15.0001 15.0001 2 1 0
0.133761 15.0001 15.0001 2 1 0
0.133859 15.0001 15.0001 2 1 0
0.133957 15.0001 15.0001 2 1 0
0.134055 15.0001 15.0001 2 1 0
0.134152 15.0001 15.0001 2 1 0
0.13425 15.0001 15.0001 2 1 0
0.134348 15.0001 15.0001 2 1 0
0.134446 15.0001 15.0001 2 1 0
0.134543 15.0001 15.0001 2 1 0
