0.116773 99.1049 99.1049 1 1 0
0.116776 99.105 99.105 1 1 0
0.116779 99.1051 99.1051 1 1 0
0.116782 99.1051 99.1051 1 1 0
0.116784 99.1052 99.1052 1 1 0
0.116787 99.1053 99.1053 1 1 0
0.11679 99.1054 99.1054 1 1 0
0.116793 99.1055 99.1055 1 1 0
0.116795 99.1056 99.1056 1 1 0
0.116798 99.1057 99.1057 1 1 0
0.116801 99.1058 99.1058 1 1 0
0.116803 99.1058 99.1058 1 1 0
0.116806 99.1059 99.1059 1 1 0
0.116809 99.106 99.106 1 1 0
0.116812 99.1061 99.1061 1 1 0
0.116814 99.1062 99.1062 1 1 0
0.116817 99.1063 99.1063 1 1 0
0.11682 99.1064 99.1064 1 1 0
0.116823 99.1065 99.1065 1 1 0
0.116825 99.1065 99.1065 1 1 0
0.116828 99.1066 99.1066 1 1 0
0.116831 99.1067 99.1067 1 1 0
0.116834 99.1068 99.1068 1 1 0
0.116836 99.1069 99.1069 1 1 0
0.116839 99.107 99.107 1 1 0
0.116842 99.1071 99.1071 1 1 0
0.116845 99.1072 99.1072 1 1 0
0.116847 99.1072 99.1072 1 1 0
0.11685 99.1073 99.1073 1 1 0
0.116853 99.1074 99.1074 1 1 0
0.116855 99.1075 99.1075 1 1 0
0.116858 99.1076 99.1076 1 1 0
0.116861 99.1077 99.1077 1 1 0
0.116864 99.1078 99.1078 1 1 0
0.116866 99.1079 99.1079 1 1 0
0.116869 99.108 99.108 1 1 0
0.116872 99.108 99.108 1 1 0
0.116875 99.1081 99.1081 1 1 0
0.116877 99.1082 99.1082 1 1 0
0.11688 99.1083 99.1083 1 1 0
0.116883 99.1084 99.1084 1 1 0
0.116886 99.1085 99.1085 1 1 0
0.116888 99.1086 99.1086 1 1 0
0.116891 99.1087 99.1087 1 1 0
0.116894 99.1087 99.1087 1 1 0
0.116897 99.1088 99.1088 1 1 0
0.116899 99.1089 99.1089 1 1 0
0.116902 99.109 99.109 1 1 0
0.116905 99.1091 99.1091 1 1 0
0.116907 99.1092 99.1092 1 1 0
0.11691 99.1093 99.1093 1 1 0
0.116913 99.1094 99.1094 1 1 0
0.116916 99.1094 99.1094 1 1 0
0.116918 99.1095 99.1095 1 1 0
0.116921 99.1096 99.1096 1 1 0
0.116924 99.1097 99.1097 1 1 0
0.116927 99.1098 99.1098 1 1 0
0.116929 99.1099 99.1099 1 1 0
0.116932 99.11 99.11 1 1 0
0.116935 99.1101 99.1101 1 1 0
0.116938 99.1101 99.1101 1 1 0
0.11694 99.1102 99.1102 1 1 0
0.116943 99.1103 99.1103 1 1 0
0.116946 99.1104 99.1104 1 1 0
0.116949 99.1105 99.1105 1 1 0
0.116951 99.1106 99.1106 1 1 0
0.116954 99.1107 99.1107 1 1 0
0.116957 99.1108 99.1108 1 1 0
0.11696 99.1109 99.1109 1 1 0
0.116962 99.1109 99.1109 1 1 0
0.116965 99.111 99.111 1 1 0
0.116968 99.1111 99.1111 1 1 0
0.116971 99.1112 99.1112 1 1 0
0.116973 99.1113 99.1113 1 1 0
0.116976 99.1114 99.1114 1 1 0
0.116979 99.1115 99.1115 1 1 0
0.116982 99.1116 99.1116 1 1 0
0.116984 99.1116 99.1116 1 1 0
0.116987 99.1117 99.1117 1 1 0
0.11699 99.1118 99.1118 1 1 0
0.116993 99.1119 99.1119 1 1 0
0.116995 99.112 99.112 1 1 0
0.116998 99.1121 99.1121 1 1 0
0.117001 99.1122 99.1122 1 1 0
0.117004 99.1123 99.1123 1 1 0
0.117006 99.1123 99.1123 1 1 0
0.117009 99.1124 99.1124 1 1 0
0.117012 99.1125 99.1125 1 1 0
0.117015 99.1126 99.1126 1 1 0
0.117017 99.1127 99.1127 1 1 0
0.11702 99.1128 99.1128 1 1 0
0.117023 99.1129 99.1129 1 1 0
0.117026 99.113 99.113 1 1 0
0.117028 99.113 99.113 1 1 0
0.117031 99.1131 99.1131 1 1 0
0.117034 99.1132 99.1132 1 1 0
0.117037 99.1133 99.1133 1 1 0
0.117039 99.1134 99.1134 1 1 0
0.117042 99.1135 99.1135 1 1 0
0.117045 99.1136 99.1136 1 1 0
0.117048 99.1137 99.1137 1 1 0
0.11705 99.1137 99.1137 1 1 0
0.117053 99.1138 99.1138 1 1 0
0.117056 99.1139 99.1139 1 1 0
0.117059 99.114 99.114 1 1 0
0.117061 99.1141 99.1141 1 1 0
0.117064 99.1142 99.1142 1 1 0
0.117067 99.1143 99.1143 1 1 0
0.11707 99.1144 99.1144 1 1 0
0.117072 99.1145 99.1145 1 1 0
0.117075 99.1145 99.1145 1 1 0
0.117078 99.1146 99.1146 1 1 0
0.117081 99.1147 99.1147 1 1 0
0.117083 99.1148 99.1148 1 1 0
0.117086 99.1149 99.1149 1 1 0
0.117089 99.115 99.115 1 1 0
0.117092 99.1151 99.1151 1 1 0
0.117094 99.1152 99.1152 1 1 0
0.117097 99.1152 99.1152 1 1 0
0.1171 99.1153 99.1153 1 1 0
0.117103 99.1154 99.1154 1 1 0
0.117105 99.1155 99.1155 1 1 0
0.117108 99.1156 99.1156 1 1 0
0.117111 99.1157 99.1157 1 1 0
0.117114 99.1158 99.1158 1 1 0
0.117116 99.1159 99.1159 1 1 0
0.117119 99.1159 99.1159 1 1 0
0.117122 99.116 99.116 1 1 0
0.117125 99.1161 99.1161 1 1 0
0.117127 99.1162 99.1162 1 1 0
0.11713 99.1163 99.1163 1 1 0
0.117133 99.1164 99.1164 1 1 0
0.117136 99.1165 99.1165 1 1 0
0.117138 99.1166 99.1166 1 1 0
0.117141 99.1166 99.1166 1 1 0
0.117144 99.1167 99.1167 1 1 0
0.117147 99.1168 99.1168 1 1 0
0.117149 99.1169 99.1169 1 1 0
0.117152 99.117 99.117 1 1 0
0.117155 99.1171 99.1171 1 1 0
0.117158 99.1172 99.1172 1 1 0
0.11716 99.1173 99.1173 1 1 0
0.117163 99.1174 99.1174 1 1 0
0.117166 99.1174 99.1174 1 1 0
0.117169 99.1175 99.1175 1 1 0
0.117172 99.1176 99.1176 1 1 0
0.117174 99.1177 99.1177 1 1 0
0.117177 99.1178 99.1178 1 1 0
0.11718 99.1179 99.1179 1 1 0
0.117183 99.118 99.118 1 1 0
0.117185 99.1181 99.1181 1 1 0
0.117188 99.1181 99.1181 1 1 0
0.117191 99.1182 99.1182 1 1 0
0.117194 99.1183 99.1183 1 1 0
0.117196 99.1184 99.1184 1 1 0
0.117199 99.1185 99.1185 1 1 0
0.117202 99.1186 99.1186 1 1 0
0.117205 99.1187 99.1187 1 1 0
0.117207 99.1188 99.1188 1 1 0
0.11721 99.1188 99.1188 1 1 0
0.117213 99.1189 99.1189 1 1 0
0.117216 99.119 99.119 1 1 0
0.117218 99.1191 99.1191 1 1 0
0.117221 99.1192 99.1192 1 1 0
0.117224 99.1193 99.1193 1 1 0
0.117227 99.1194 99.1194 1 1 0
0.117229 99.1195 99.1195 1 1 0
0.117232 99.1195 99.1195 1 1 0
0.117235 99.1196 99.1196 1 1 0
0.117238 99.1197 99.1197 1 1 0
0.117241 99.1198 99.1198 1 1 0
0.117243 99.1199 99.1199 1 1 0
0.117246 99.12 99.12 1 1 0
0.117249 99.1201 99.1201 1 1 0
0.117252 99.1202 99.1202 1 1 0
0.117254 99.1202 99.1202 1 1 0
0.117257 99.1203 99.1203 1 1 0
0.11726 99.1204 99.1204 1 1 0
0.117263 99.1205 99.1205 1 1 0
0.117265 99.1206 99.1206 1 1 0
0.117268 99.1207 99.1207 1 1 0
0.117271 99.1208 99.1208 1 1 0
0.117274 99.1209 99.1209 1 1 0
0.117277 99.121 99.121 1 1 0
0.117279 99.121 99.121 1 1 0
0.117282 99.1211 99.1211 1 1 0
0.117285 99.1212 99.1212 1 1 0
0.117288 99.1213 99.1213 1 1 0
0.11729 99.1214 99.1214 1 1 0
0.117293 99.1215 99.1215 1 1 0
0.117296 99.1216 99.1216 1 1 0
0.117299 99.1217 99.1217 1 1 0
0.117301 99.1217 99.1217 1 1 0
0.117304 99.1218 99.1218 1 1 0
0.117307 99.1219 99.1219 1 1 0
0.11731 99.122 99.122 1 1 0
0.117313 99.1221 99.1221 1 1 0
0.117315 99.1222 99.1222 1 1 0
0.117318 99.1223 99.1223 1 1 0
0.117321 99.1224 99.1224 1 1 0
0.117324 99.1224 99.1224 1 1 0
0.117326 99.1225 99.1225 1 1 0
0.117329 99.1226 99.1226 1 1 0
0.117332 99.1227 99.1227 1 1 0
0.117335 99.1228 99.1228 1 1 0
0.117337 99.1229 99.1229 1 1 0
0.11734 99.123 99.123 1 1 0
0.117343 99.1231 99.1231 1 1 0
0.117346 99.1231 99.1231 1 1 0
0.117349 99.1232 99.1232 1 1 0
0.117351 99.1233 99.1233 1 1 0
0.117354 99.1234 99.1234 1 1 0
0.117357 99.1235 99.1235 1 1 0
0.11736 99.1236 99.1236 1 1 0
0.117362 99.1237 99.1237 1 1 0
0.117365 99.1238 99.1238 1 1 0
0.117368 99.1239 99.1239 1 1 0
0.117371 99.1239 99.1239 1 1 0
0.117373 99.124 99.124 1 1 0
0.117376 99.1241 99.1241 1 1 0
0.117379 99.1242 99.1242 1 1 0
0.117382 99.1243 99.1243 1 1 0
0.117385 99.1244 99.1244 1 1 0
0.117387 99.1245 99.1245 1 1 0
0.11739 99.1246 99.1246 1 1 0
0.117393 99.1246 99.1246 1 1 0
0.117396 99.1247 99.1247 1 1 0
0.117398 99.1248 99.1248 1 1 0
0.117401 99.1249 99.1249 1 1 0
0.117404 99.125 99.125 1 1 0
0.117407 99.1251 99.1251 1 1 0
0.11741 99.1252 99.1252 1 1 0
0.117412 99.1253 99.1253 1 1 0
0.117415 99.1253 99.1253 1 1 0
0.117418 99.1254 99.1254 1 1 0
0.117421 99.1255 99.1255 1 1 0
0.117423 99.1256 99.1256 1 1 0
0.117426 99.1257 99.1257 1 1 0
0.117429 99.1258 99.1258 1 1 0
0.117432 99.1259 99.1259 1 1 0
0.117435 99.126 99.126 1 1 0
0.117437 99.126 99.126 1 1 0
0.11744 99.1261 99.1261 1 1 0
0.117443 99.1262 99.1262 1 1 0
0.117446 99.1263 99.1263 1 1 0
0.117448 99.1264 99.1264 1 1 0
0.117451 99.1265 99.1265 1 1 0
0.117454 99.1266 99.1266 1 1 0
0.117457 99.1267 99.1267 1 1 0
0.11746 99.1267 99.1267 1 1 0
0.117462 99.1268 99.1268 1 1 0
0.117465 99.1269 99.1269 1 1 0
0.117468 99.127 99.127 1 1 0
0.117471 99.1271 99.1271 1 1 0
0.117473 99.1272 99.1272 1 1 0
0.117476 99.1273 99.1273 1 1 0
0.117479 99.1274 99.1274 1 1 0
0.117482 99.1275 99.1275 1 1 0
0.117485 99.1275 99.1275 1 1 0
0.117487 99.1276 99.1276 1 1 0
0.11749 99.1277 99.1277 1 1 0
0.117493 99.1278 99.1278 1 1 0
0.117496 99.1279 99.1279 1 1 0
0.117499 99.128 99.128 1 1 0
0.117501 99.1281 99.1281 1 1 0
0.117504 99.1282 99.1282 1 1 0
0.117507 99.1282 99.1282 1 1 0
0.11751 99.1283 99.1283 1 1 0
0.117512 99.1284 99.1284 1 1 0
0.117515 99.1285 99.1285 1 1 0
0.117518 99.1286 99.1286 1 1 0
0.117521 99.1287 99.1287 1 1 0
0.117524 99.1288 99.1288 1 1 0
0.117526 99.1289 99.1289 1 1 0
0.117529 99.1289 99.1289 1 1 0
0.117532 99.129 99.129 1 1 0
0.117535 99.1291 99.1291 1 1 0
0.117538 99.1292 99.1292 1 1 0
0.11754 99.1293 99.1293 1 1 0
0.117543 99.1294 99.1294 1 1 0
0.117546 99.1295 99.1295 1 1 0
0.117549 99.1296 99.1296 1 1 0
0.117551 99.1296 99.1296 1 1 0
0.117554 99.1297 99.1297 1 1 0
0.117557 99.1298 99.1298 1 1 0
0.11756 99.1299 99.1299 1 1 0
0.117563 99.13 99.13 1 1 0
0.117565 99.1301 99.1301 1 1 0
0.117568 99.1302 99.1302 1 1 0
0.117571 99.1303 99.1303 1 1 0
0.117574 99.1303 99.1303 1 1 0
0.117577 99.1304 99.1304 1 1 0
0.117579 99.1305 99.1305 1 1 0
0.117582 99.1306 99.1306 1 1 0
0.117585 99.1307 99.1307 1 1 0
0.117588 99.1308 99.1308 1 1 0
0.11759 99.1309 99.1309 1 1 0
0.117593 99.131 99.131 1 1 0
0.117596 99.1311 99.1311 1 1 0
0.117599 99.1311 99.1311 1 1 0
0.117602 99.1312 99.1312 1 1 0
0.117604 99.1313 99.1313 1 1 0
0.117607 99.1314 99.1314 1 1 0
0.11761 99.1315 99.1315 1 1 0
0.117613 99.1316 99.1316 1 1 0
0.117616 99.1317 99.1317 1 1 0
0.117618 99.1318 99.1318 1 1 0
0.117621 99.1318 99.1318 1 1 0
0.117624 99.1319 99.1319 1 1 0
0.117627 99.132 99.132 1 1 0
0.11763 99.1321 99.1321 1 1 0
0.117632 99.1322 99.1322 1 1 0
0.117635 99.1323 99.1323 1 1 0
0.117638 99.1324 99.1324 1 1 0
0.117641 99.1325 99.1325 1 1 0
0.117644 99.1325 99.1325 1 1 0
0.117646 99.1326 99.1326 1 1 0
0.117649 99.1327 99.1327 1 1 0
0.117652 99.1328 99.1328 1 1 0
0.117655 99.1329 99.1329 1 1 0
0.117657 99.133 99.133 1 1 0
0.11766 99.1331 99.1331 1 1 0
0.117663 99.1332 99.1332 1 1 0
0.117666 99.1332 99.1332 1 1 0
0.117669 99.1333 99.1333 1 1 0
0.117671 99.1334 99.1334 1 1 0
0.117674 99.1335 99.1335 1 1 0
0.117677 99.1336 99.1336 1 1 0
0.11768 99.1337 99.1337 1 1 0
0.117683 99.1338 99.1338 1 1 0
0.117685 99.1339 99.1339 1 1 0
0.117688 99.1339 99.1339 1 1 0
0.117691 99.134 99.134 1 1 0
0.117694 99.1341 99.1341 1 1 0
0.117697 99.1342 99.1342 1 1 0
0.117699 99.1343 99.1343 1 1 0
0.117702 99.1344 99.1344 1 1 0
0.117705 99.1345 99.1345 1 1 0
0.117708 99.1346 99.1346 1 1 0
0.117711 99.1347 99.1347 1 1 0
0.117713 99.1347 99.1347 1 1 0
0.117716 99.1348 99.1348 1 1 0
0.117719 99.1349 99.1349 1 1 0
0.117722 99.135 99.135 1 1 0
0.117725 99.1351 99.1351 1 1 0
0.117727 99.1352 99.1352 1 1 0
0.11773 99.1353 99.1353 1 1 0
0.117733 99.1354 99.1354 1 1 0
0.117736 99.1354 99.1354 1 1 0
0.117739 99.1355 99.1355 1 1 0
0.117741 99.1356 99.1356 1 1 0
0.117744 99.1357 99.1357 1 1 0
0.117747 99.1358 99.1358 1 1 0
0.11775 99.1359 99.1359 1 1 0
0.117753 99.136 99.136 1 1 0
0.117755 99.1361 99.1361 1 1 0
0.117758 99.1361 99.1361 1 1 0
0.117761 99.1362 99.1362 1 1 0
0.117764 99.1363 99.1363 1 1 0
0.117767 99.1364 99.1364 1 1 0
0.117769 99.1365 99.1365 1 1 0
0.117772 99.1366 99.1366 1 1 0
0.117775 99.1367 99.1367 1 1 0
0.117778 99.1368 99.1368 1 1 0
0.117781 99.1368 99.1368 1 1 0
0.117783 99.1369 99.1369 1 1 0
0.117786 99.137 99.137 1 1 0
0.117789 99.1371 99.1371 1 1 0
0.117792 99.1372 99.1372 1 1 0
0.117795 99.1373 99.1373 1 1 0
0.117797 99.1374 99.1374 1 1 0
0.1178 99.1375 99.1375 1 1 0
0.117803 99.1375 99.1375 1 1 0
0.117806 99.1376 99.1376 1 1 0
0.117809 99.1377 99.1377 1 1 0
0.117812 99.1378 99.1378 1 1 0
0.117814 99.1379 99.1379 1 1 0
0.117817 99.138 99.138 1 1 0
0.11782 99.1381 99.1381 1 1 0
0.117823 99.1382 99.1382 1 1 0
0.117826 99.1383 99.1383 1 1 0
0.117828 99.1383 99.1383 1 1 0
0.117831 99.1384 99.1384 1 1 0
0.117834 99.1385 99.1385 1 1 0
0.117837 99.1386 99.1386 1 1 0
0.11784 99.1387 99.1387 1 1 0
0.117842 99.1388 99.1388 1 1 0
0.117845 99.1389 99.1389 1 1 0
0.117848 99.139 99.139 1 1 0
0.117851 99.139 99.139 1 1 0
0.117854 99.1391 99.1391 1 1 0
0.117856 99.1392 99.1392 1 1 0
0.117859 99.1393 99.1393 1 1 0
0.117862 99.1394 99.1394 1 1 0
0.117865 99.1395 99.1395 1 1 0
0.117868 99.1396 99.1396 1 1 0
0.11787 99.1397 99.1397 1 1 0
0.117873 99.1397 99.1397 1 1 0
0.117876 99.1398 99.1398 1 1 0
0.117879 99.1399 99.1399 1 1 0
0.117882 99.14 99.14 1 1 0
0.117885 99.1401 99.1401 1 1 0
0.117887 99.1402 99.1402 1 1 0
0.11789 99.1403 99.1403 1 1 0
0.117893 99.1404 99.1404 1 1 0
0.117896 99.1404 99.1404 1 1 0
0.117899 99.1405 99.1405 1 1 0
0.117901 99.1406 99.1406 1 1 0
0.117904 99.1407 99.1407 1 1 0
0.117907 99.1408 99.1408 1 1 0
0.11791 99.1409 99.1409 1 1 0
0.117913 99.141 99.141 1 1 0
0.117915 99.1411 99.1411 1 1 0
0.117918 99.1411 99.1411 1 1 0
0.117921 99.1412 99.1412 1 1 0
0.117924 99.1413 99.1413 1 1 0
0.117927 99.1414 99.1414 1 1 0
0.11793 99.1415 99.1415 1 1 0
0.117932 99.1416 99.1416 1 1 0
0.117935 99.1417 99.1417 1 1 0
0.117938 99.1418 99.1418 1 1 0
0.117941 99.1419 99.1419 1 1 0
0.117944 99.1419 99.1419 1 1 0
0.117946 99.142 99.142 1 1 0
0.117949 99.1421 99.1421 1 1 0
0.117952 99.1422 99.1422 1 1 0
0.117955 99.1423 99.1423 1 1 0
0.117958 99.1424 99.1424 1 1 0
0.117961 99.1425 99.1425 1 1 0
0.117963 99.1426 99.1426 1 1 0
0.117966 99.1426 99.1426 1 1 0
0.117969 99.1427 99.1427 1 1 0
0.117972 99.1428 99.1428 1 1 0
0.117975 99.1429 99.1429 1 1 0
0.117977 99.143 99.143 1 1 0
0.11798 99.1431 99.1431 1 1 0
0.117983 99.1432 99.1432 1 1 0
0.117986 99.1433 99.1433 1 1 0
0.117989 99.1433 99.1433 1 1 0
0.117992 99.1434 99.1434 1 1 0
0.117994 99.1435 99.1435 1 1 0
0.117997 99.1436 99.1436 1 1 0
0.118 99.1437 99.1437 1 1 0
0.118003 99.1438 99.1438 1 1 0
0.118006 99.1439 99.1439 1 1 0
0.118008 99.144 99.144 1 1 0
0.118011 99.144 99.144 1 1 0
0.118014 99.1441 99.1441 1 1 0
0.118017 99.1442 99.1442 1 1 0
0.11802 99.1443 99.1443 1 1 0
0.118023 99.1444 99.1444 1 1 0
0.118025 99.1445 99.1445 1 1 0
0.118028 99.1446 99.1446 1 1 0
0.118031 99.1447 99.1447 1 1 0
0.118034 99.1447 99.1447 1 1 0
0.118037 99.1448 99.1448 1 1 0
0.118039 99.1449 99.1449 1 1 0
0.118042 99.145 99.145 1 1 0
0.118045 99.1451 99.1451 1 1 0
0.118048 99.1452 99.1452 1 1 0
0.118051 99.1453 99.1453 1 1 0
0.118054 99.1454 99.1454 1 1 0
0.118056 99.1454 99.1454 1 1 0
0.118059 99.1455 99.1455 1 1 0
0.118062 99.1456 99.1456 1 1 0
0.118065 99.1457 99.1457 1 1 0
0.118068 99.1458 99.1458 1 1 0
0.118071 99.1459 99.1459 1 1 0
0.118073 99.146 99.146 1 1 0
0.118076 99.1461 99.1461 1 1 0
0.118079 99.1462 99.1462 1 1 0
0.118082 99.1462 99.1462 1 1 0
0.118085 99.1463 99.1463 1 1 0
0.118088 99.1464 99.1464 1 1 0
0.11809 99.1465 99.1465 1 1 0
0.118093 99.1466 99.1466 1 1 0
0.118096 99.1467 99.1467 1 1 0
0.118099 99.1468 99.1468 1 1 0
0.118102 99.1469 99.1469 1 1 0
0.118104 99.1469 99.1469 1 1 0
0.118107 99.147 99.147 1 1 0
0.11811 99.1471 99.1471 1 1 0
0.118113 99.1472 99.1472 1 1 0
0.118116 99.1473 99.1473 1 1 0
0.118119 99.1474 99.1474 1 1 0
0.118121 99.1475 99.1475 1 1 0
0.118124 99.1476 99.1476 1 1 0
0.118127 99.1476 99.1476 1 1 0
0.11813 99.1477 99.1477 1 1 0
0.118133 99.1478 99.1478 1 1 0
0.118136 99.1479 99.1479 1 1 0
0.118138 99.148 99.148 1 1 0
0.118141 99.1481 99.1481 1 1 0
0.118144 99.1482 99.1482 1 1 0
0.118147 99.1483 99.1483 1 1 0
0.11815 99.1483 99.1483 1 1 0
0.118153 99.1484 99.1484 1 1 0
0.118155 99.1485 99.1485 1 1 0
0.118158 99.1486 99.1486 1 1 0
0.118161 99.1487 99.1487 1 1 0
0.118164 99.1488 99.1488 1 1 0
0.118167 99.1489 99.1489 1 1 0
0.11817 99.149 99.149 1 1 0
0.118172 99.149 99.149 1 1 0
0.118175 99.1491 99.1491 1 1 0
0.118178 99.1492 99.1492 1 1 0
0.118181 99.1493 99.1493 1 1 0
0.118184 99.1494 99.1494 1 1 0
0.118187 99.1495 99.1495 1 1 0
0.118189 99.1496 99.1496 1 1 0
0.118192 99.1497 99.1497 1 1 0
0.118195 99.1498 99.1498 1 1 0
0.118198 99.1498 99.1498 1 1 0
0.118201 99.1499 99.1499 1 1 0
0.118204 99.15 99.15 1 1 0
0.118206 99.1501 99.1501 1 1 0
0.118209 99.1502 99.1502 1 1 0
0.118212 99.1503 99.1503 1 1 0
0.118215 99.1504 99.1504 1 1 0
0.118218 99.1505 99.1505 1 1 0
0.118221 99.1505 99.1505 1 1 0
0.118223 99.1506 99.1506 1 1 0
0.118226 99.1507 99.1507 1 1 0
0.118229 99.1508 99.1508 1 1 0
0.118232 99.1509 99.1509 1 1 0
0.118235 99.151 99.151 1 1 0
0.118238 99.1511 99.1511 1 1 0
0.11824 99.1512 99.1512 1 1 0
0.118243 99.1512 99.1512 1 1 0
0.118246 99.1513 99.1513 1 1 0
0.118249 99.1514 99.1514 1 1 0
0.118252 99.1515 99.1515 1 1 0
0.118255 99.1516 99.1516 1 1 0
0.118257 99.1517 99.1517 1 1 0
0.11826 99.1518 99.1518 1 1 0
0.118263 99.1519 99.1519 1 1 0
0.118266 99.1519 99.1519 1 1 0
0.118269 99.152 99.152 1 1 0
0.118272 99.1521 99.1521 1 1 0
0.118275 99.1522 99.1522 1 1 0
0.118277 99.1523 99.1523 1 1 0
0.11828 99.1524 99.1524 1 1 0
0.118283 99.1525 99.1525 1 1 0
0.118286 99.1526 99.1526 1 1 0
0.118289 99.1526 99.1526 1 1 0
0.118292 99.1527 99.1527 1 1 0
0.118294 99.1528 99.1528 1 1 0
0.118297 99.1529 99.1529 1 1 0
0.1183 99.153 99.153 1 1 0
0.118303 99.1531 99.1531 1 1 0
0.118306 99.1532 99.1532 1 1 0
0.118309 99.1533 99.1533 1 1 0
0.118311 99.1533 99.1533 1 1 0
0.118314 99.1534 99.1534 1 1 0
0.118317 99.1535 99.1535 1 1 0
0.11832 99.1536 99.1536 1 1 0
0.118323 99.1537 99.1537 1 1 0
0.118326 99.1538 99.1538 1 1 0
0.118329 99.1539 99.1539 1 1 0
0.118331 99.154 99.154 1 1 0
0.118334 99.1541 99.1541 1 1 0
0.118337 99.1541 99.1541 1 1 0
0.11834 99.1542 99.1542 1 1 0
0.118343 99.1543 99.1543 1 1 0
0.118346 99.1544 99.1544 1 1 0
0.118348 99.1545 99.1545 1 1 0
0.118351 99.1546 99.1546 1 1 0
0.118354 99.1547 99.1547 1 1 0
0.118357 99.1548 99.1548 1 1 0
0.11836 99.1548 99.1548 1 1 0
0.118363 99.1549 99.1549 1 1 0
0.118366 99.155 99.155 1 1 0
0.118368 99.1551 99.1551 1 1 0
0.118371 99.1552 99.1552 1 1 0
0.118374 99.1553 99.1553 1 1 0
0.118377 99.1554 99.1554 1 1 0
0.11838 99.1555 99.1555 1 1 0
0.118383 99.1555 99.1555 1 1 0
0.118385 99.1556 99.1556 1 1 0
0.118388 99.1557 99.1557 1 1 0
0.118391 99.1558 99.1558 1 1 0
0.118394 99.1559 99.1559 1 1 0
0.118397 99.156 99.156 1 1 0
0.1184 99.1561 99.1561 1 1 0
0.118403 99.1562 99.1562 1 1 0
0.118405 99.1562 99.1562 1 1 0
0.118408 99.1563 99.1563 1 1 0
0.118411 99.1564 99.1564 1 1 0
0.118414 99.1565 99.1565 1 1 0
0.118417 99.1566 99.1566 1 1 0
0.11842 99.1567 99.1567 1 1 0
0.118423 99.1568 99.1568 1 1 0
0.118425 99.1569 99.1569 1 1 0
0.118428 99.1569 99.1569 1 1 0
0.118431 99.157 99.157 1 1 0
0.118434 99.1571 99.1571 1 1 0
0.118437 99.1572 99.1572 1 1 0
0.11844 99.1573 99.1573 1 1 0
0.118442 99.1574 99.1574 1 1 0
0.118445 99.1575 99.1575 1 1 0
0.118448 99.1576 99.1576 1 1 0
0.118451 99.1576 99.1576 1 1 0
0.118454 99.1577 99.1577 1 1 0
0.118457 99.1578 99.1578 1 1 0
0.11846 99.1579 99.1579 1 1 0
0.118462 99.158 99.158 1 1 0
0.118465 99.1581 99.1581 1 1 0
0.118468 99.1582 99.1582 1 1 0
0.118471 99.1583 99.1583 1 1 0
0.118474 99.1584 99.1584 1 1 0
0.118477 99.1584 99.1584 1 1 0
0.11848 99.1585 99.1585 1 1 0
0.118482 99.1586 99.1586 1 1 0
0.118485 99.1587 99.1587 1 1 0
0.118488 99.1588 99.1588 1 1 0
0.118491 99.1589 99.1589 1 1 0
0.118494 99.159 99.159 1 1 0
0.118497 99.1591 99.1591 1 1 0
0.1185 99.1591 99.1591 1 1 0
0.118502 99.1592 99.1592 1 1 0
0.118505 99.1593 99.1593 1 1 0
0.118508 99.1594 99.1594 1 1 0
0.118511 99.1595 99.1595 1 1 0
0.118514 99.1596 99.1596 1 1 0
0.118517 99.1597 99.1597 1 1 0
0.11852 99.1598 99.1598 1 1 0
0.118522 99.1598 99.1598 1 1 0
0.118525 99.1599 99.1599 1 1 0
0.118528 99.16 99.16 1 1 0
0.118531 99.1601 99.1601 1 1 0
0.118534 99.1602 99.1602 1 1 0
0.118537 99.1603 99.1603 1 1 0
0.11854 99.1604 99.1604 1 1 0
0.118542 99.1605 99.1605 1 1 0
0.118545 99.1605 99.1605 1 1 0
0.118548 99.1606 99.1606 1 1 0
0.118551 99.1607 99.1607 1 1 0
0.118554 99.1608 99.1608 1 1 0
0.118557 99.1609 99.1609 1 1 0
0.11856 99.161 99.161 1 1 0
0.118562 99.1611 99.1611 1 1 0
0.118565 99.1612 99.1612 1 1 0
0.118568 99.1612 99.1612 1 1 0
0.118571 99.1613 99.1613 1 1 0
0.118574 99.1614 99.1614 1 1 0
0.118577 99.1615 99.1615 1 1 0
0.11858 99.1616 99.1616 1 1 0
0.118583 99.1617 99.1617 1 1 0
0.118585 99.1618 99.1618 1 1 0
0.118588 99.1619 99.1619 1 1 0
0.118591 99.1619 99.1619 1 1 0
0.118594 99.162 99.162 1 1 0
0.118597 99.1621 99.1621 1 1 0
0.1186 99.1622 99.1622 1 1 0
0.118603 99.1623 99.1623 1 1 0
0.118605 99.1624 99.1624 1 1 0
0.118608 99.1625 99.1625 1 1 0
0.118611 99.1626 99.1626 1 1 0
0.118614 99.1627 99.1627 1 1 0
0.118617 99.1627 99.1627 1 1 0
0.11862 99.1628 99.1628 1 1 0
0.118623 99.1629 99.1629 1 1 0
0.118626 99.163 99.163 1 1 0
0.118628 99.1631 99.1631 1 1 0
0.118631 99.1632 99.1632 1 1 0
0.118634 99.1633 99.1633 1 1 0
0.118637 99.1634 99.1634 1 1 0
0.11864 99.1634 99.1634 1 1 0
0.118643 99.1635 99.1635 1 1 0
0.118646 99.1636 99.1636 1 1 0
0.118648 99.1637 99.1637 1 1 0
0.118651 99.1638 99.1638 1 1 0
0.118654 99.1639 99.1639 1 1 0
0.118657 99.164 99.164 1 1 0
0.11866 99.1641 99.1641 1 1 0
0.118663 99.1641 99.1641 1 1 0
0.118666 99.1642 99.1642 1 1 0
0.118669 99.1643 99.1643 1 1 0
0.118671 99.1644 99.1644 1 1 0
0.118674 99.1645 99.1645 1 1 0
0.118677 99.1646 99.1646 1 1 0
0.11868 99.1647 99.1647 1 1 0
0.118683 99.1648 99.1648 1 1 0
0.118686 99.1648 99.1648 1 1 0
0.118689 99.1649 99.1649 1 1 0
0.118692 99.165 99.165 1 1 0
0.118694 99.1651 99.1651 1 1 0
0.118697 99.1652 99.1652 1 1 0
0.1187 99.1653 99.1653 1 1 0
0.118703 99.1654 99.1654 1 1 0
0.118706 99.1655 99.1655 1 1 0
0.118709 99.1655 99.1655 1 1 0
0.118712 99.1656 99.1656 1 1 0
0.118715 99.1657 99.1657 1 1 0
0.118717 99.1658 99.1658 1 1 0
0.11872 99.1659 99.1659 1 1 0
0.118723 99.166 99.166 1 1 0
0.118726 99.1661 99.1661 1 1 0
0.118729 99.1662 99.1662 1 1 0
0.118732 99.1662 99.1662 1 1 0
0.118735 99.1663 99.1663 1 1 0
0.118738 99.1664 99.1664 1 1 0
0.11874 99.1665 99.1665 1 1 0
0.118743 99.1666 99.1666 1 1 0
0.118746 99.1667 99.1667 1 1 0
0.118749 99.1668 99.1668 1 1 0
0.118752 99.1669 99.1669 1 1 0
0.118755 99.167 99.167 1 1 0
0.118758 99.167 99.167 1 1 0
0.118761 99.1671 99.1671 1 1 0
0.118763 99.1672 99.1672 1 1 0
0.118766 99.1673 99.1673 1 1 0
0.118769 99.1674 99.1674 1 1 0
0.118772 99.1675 99.1675 1 1 0
0.118775 99.1676 99.1676 1 1 0
0.118778 99.1677 99.1677 1 1 0
0.118781 99.1677 99.1677 1 1 0
0.118784 99.1678 99.1678 1 1 0
0.118786 99.1679 99.1679 1 1 0
0.118789 99.168 99.168 1 1 0
0.118792 99.1681 99.1681 1 1 0
0.118795 99.1682 99.1682 1 1 0
0.118798 99.1683 99.1683 1 1 0
0.118801 99.1684 99.1684 1 1 0
0.118804 99.1684 99.1684 1 1 0
0.118807 99.1685 99.1685 1 1 0
0.118809 99.1686 99.1686 1 1 0
0.118812 99.1687 99.1687 1 1 0
0.118815 99.1688 99.1688 1 1 0
0.118818 99.1689 99.1689 1 1 0
0.118821 99.169 99.169 1 1 0
0.118824 99.1691 99.1691 1 1 0
0.118827 99.1691 99.1691 1 1 0
0.11883 99.1692 99.1692 1 1 0
0.118833 99.1693 99.1693 1 1 0
0.118835 99.1694 99.1694 1 1 0
0.118838 99.1695 99.1695 1 1 0
0.118841 99.1696 99.1696 1 1 0
0.118844 99.1697 99.1697 1 1 0
0.118847 99.1698 99.1698 1 1 0
0.11885 99.1698 99.1698 1 1 0
0.118853 99.1699 99.1699 1 1 0
0.118856 99.17 99.17 1 1 0
0.118858 99.1701 99.1701 1 1 0
0.118861 99.1702 99.1702 1 1 0
0.118864 99.1703 99.1703 1 1 0
0.118867 99.1704 99.1704 1 1 0
0.11887 99.1705 99.1705 1 1 0
0.118873 99.1705 99.1705 1 1 0
0.118876 99.1706 99.1706 1 1 0
0.118879 99.1707 99.1707 1 1 0
0.118882 99.1708 99.1708 1 1 0
0.118884 99.1709 99.1709 1 1 0
0.118887 99.171 99.171 1 1 0
0.11889 99.1711 99.1711 1 1 0
0.118893 99.1712 99.1712 1 1 0
0.118896 99.1713 99.1713 1 1 0
0.118899 99.1713 99.1713 1 1 0
0.118902 99.1714 99.1714 1 1 0
0.118905 99.1715 99.1715 1 1 0
0.118908 99.1716 99.1716 1 1 0
0.11891 99.1717 99.1717 1 1 0
0.118913 99.1718 99.1718 1 1 0
0.118916 99.1719 99.1719 1 1 0
0.118919 99.172 99.172 1 1 0
0.118922 99.172 99.172 1 1 0
0.118925 99.1721 99.1721 1 1 0
0.118928 99.1722 99.1722 1 1 0
0.118931 99.1723 99.1723 1 1 0
0.118934 99.1724 99.1724 1 1 0
0.118936 99.1725 99.1725 1 1 0
0.118939 99.1726 99.1726 1 1 0
0.118942 99.1727 99.1727 1 1 0
0.118945 99.1727 99.1727 1 1 0
0.118948 99.1728 99.1728 1 1 0
0.118951 99.1729 99.1729 1 1 0
0.118954 99.173 99.173 1 1 0
0.118957 99.1731 99.1731 1 1 0
0.11896 99.1732 99.1732 1 1 0
0.118962 99.1733 99.1733 1 1 0
0.118965 99.1734 99.1734 1 1 0
0.118968 99.1734 99.1734 1 1 0
0.118971 99.1735 99.1735 1 1 0
0.118974 99.1736 99.1736 1 1 0
0.118977 99.1737 99.1737 1 1 0
0.11898 99.1738 99.1738 1 1 0
0.118983 99.1739 99.1739 1 1 0
0.118986 99.174 99.174 1 1 0
0.118989 99.1741 99.1741 1 1 0
0.118991 99.1741 99.1741 1 1 0
0.118994 99.1742 99.1742 1 1 0
0.118997 99.1743 99.1743 1 1 0
0.119 99.1744 99.1744 1 1 0
0.119003 99.1745 99.1745 1 1 0
0.119006 99.1746 99.1746 1 1 0
0.119009 99.1747 99.1747 1 1 0
0.119012 99.1748 99.1748 1 1 0
0.119015 99.1748 99.1748 1 1 0
0.119017 99.1749 99.1749 1 1 0
0.11902 99.175 99.175 1 1 0
0.119023 99.1751 99.1751 1 1 0
0.119026 99.1752 99.1752 1 1 0
0.119029 99.1753 99.1753 1 1 0
0.119032 99.1754 99.1754 1 1 0
0.119035 99.1755 99.1755 1 1 0
0.119038 99.1755 99.1755 1 1 0
0.119041 99.1756 99.1756 1 1 0
0.119044 99.1757 99.1757 1 1 0
0.119046 99.1758 99.1758 1 1 0
0.119049 99.1759 99.1759 1 1 0
0.119052 99.176 99.176 1 1 0
0.119055 99.1761 99.1761 1 1 0
0.119058 99.1762 99.1762 1 1 0
0.119061 99.1763 99.1763 1 1 0
0.119064 99.1763 99.1763 1 1 0
0.119067 99.1764 99.1764 1 1 0
0.11907 99.1765 99.1765 1 1 0
0.119073 99.1766 99.1766 1 1 0
0.119075 99.1767 99.1767 1 1 0
0.119078 99.1768 99.1768 1 1 0
0.119081 99.1769 99.1769 1 1 0
0.119084 99.177 99.177 1 1 0
0.119087 99.177 99.177 1 1 0
0.11909 99.1771 99.1771 1 1 0
0.119093 99.1772 99.1772 1 1 0
0.119096 99.1773 99.1773 1 1 0
0.119099 99.1774 99.1774 1 1 0
0.119102 99.1775 99.1775 1 1 0
0.119104 99.1776 99.1776 1 1 0
0.119107 99.1777 99.1777 1 1 0
0.11911 99.1777 99.1777 1 1 0
0.119113 99.1778 99.1778 1 1 0
0.119116 99.1779 99.1779 1 1 0
0.119119 99.178 99.178 1 1 0
0.119122 99.1781 99.1781 1 1 0
0.119125 99.1782 99.1782 1 1 0
0.119128 99.1783 99.1783 1 1 0
0.119131 99.1784 99.1784 1 1 0
0.119134 99.1784 99.1784 1 1 0
0.119136 99.1785 99.1785 1 1 0
0.119139 99.1786 99.1786 1 1 0
0.119142 99.1787 99.1787 1 1 0
0.119145 99.1788 99.1788 1 1 0
0.119148 99.1789 99.1789 1 1 0
0.119151 99.179 99.179 1 1 0
0.119154 99.1791 99.1791 1 1 0
0.119157 99.1791 99.1791 1 1 0
0.11916 99.1792 99.1792 1 1 0
0.119163 99.1793 99.1793 1 1 0
0.119166 99.1794 99.1794 1 1 0
0.119168 99.1795 99.1795 1 1 0
0.119171 99.1796 99.1796 1 1 0
0.119174 99.1797 99.1797 1 1 0
0.119177 99.1798 99.1798 1 1 0
0.11918 99.1798 99.1798 1 1 0
0.119183 99.1799 99.1799 1 1 0
0.119186 99.18 99.18 1 1 0
0.119189 99.1801 99.1801 1 1 0
0.119192 99.1802 99.1802 1 1 0
0.119195 99.1803 99.1803 1 1 0
0.119198 99.1804 99.1804 1 1 0
0.1192 99.1805 99.1805 1 1 0
0.119203 99.1805 99.1805 1 1 0
0.119206 99.1806 99.1806 1 1 0
0.119209 99.1807 99.1807 1 1 0
0.119212 99.1808 99.1808 1 1 0
0.119215 99.1809 99.1809 1 1 0
0.119218 99.181 99.181 1 1 0
0.119221 99.1811 99.1811 1 1 0
0.119224 99.1812 99.1812 1 1 0
0.119227 99.1813 99.1813 1 1 0
0.11923 99.1813 99.1813 1 1 0
0.119232 99.1814 99.1814 1 1 0
0.119235 99.1815 99.1815 1 1 0
0.119238 99.1816 99.1816 1 1 0
0.119241 99.1817 99.1817 1 1 0
0.119244 99.1818 99.1818 1 1 0
0.119247 99.1819 99.1819 1 1 0
0.11925 99.182 99.182 1 1 0
0.119253 99.182 99.182 1 1 0
0.119256 99.1821 99.1821 1 1 0
0.119259 99.1822 99.1822 1 1 0
0.119262 99.1823 99.1823 1 1 0
0.119265 99.1824 99.1824 1 1 0
0.119267 99.1825 99.1825 1 1 0
0.11927 99.1826 99.1826 1 1 0
0.119273 99.1827 99.1827 1 1 0
0.119276 99.1827 99.1827 1 1 0
0.119279 99.1828 99.1828 1 1 0
0.119282 99.1829 99.1829 1 1 0
0.119285 99.183 99.183 1 1 0
0.119288 99.1831 99.1831 1 1 0
0.119291 99.1832 99.1832 1 1 0
0.119294 99.1833 99.1833 1 1 0
0.119297 99.1834 99.1834 1 1 0
0.1193 99.1834 99.1834 1 1 0
0.119302 99.1835 99.1835 1 1 0
0.119305 99.1836 99.1836 1 1 0
0.119308 99.1837 99.1837 1 1 0
0.119311 99.1838 99.1838 1 1 0
0.119314 99.1839 99.1839 1 1 0
0.119317 99.184 99.184 1 1 0
0.11932 99.1841 99.1841 1 1 0
0.119323 99.1841 99.1841 1 1 0
0.119326 99.1842 99.1842 1 1 0
0.119329 99.1843 99.1843 1 1 0
0.119332 99.1844 99.1844 1 1 0
0.119335 99.1845 99.1845 1 1 0
0.119338 99.1846 99.1846 1 1 0
0.11934 99.1847 99.1847 1 1 0
0.119343 99.1848 99.1848 1 1 0
0.119346 99.1848 99.1848 1 1 0
0.119349 99.1849 99.1849 1 1 0
0.119352 99.185 99.185 1 1 0
0.119355 99.1851 99.1851 1 1 0
0.119358 99.1852 99.1852 1 1 0
0.119361 99.1853 99.1853 1 1 0
0.119364 99.1854 99.1854 1 1 0
0.119367 99.1855 99.1855 1 1 0
0.11937 99.1855 99.1855 1 1 0
0.119373 99.1856 99.1856 1 1 0
0.119376 99.1857 99.1857 1 1 0
0.119378 99.1858 99.1858 1 1 0
0.119381 99.1859 99.1859 1 1 0
0.119384 99.186 99.186 1 1 0
0.119387 99.1861 99.1861 1 1 0
0.11939 99.1862 99.1862 1 1 0
0.119393 99.1863 99.1863 1 1 0
0.119396 99.1863 99.1863 1 1 0
0.119399 99.1864 99.1864 1 1 0
0.119402 99.1865 99.1865 1 1 0
0.119405 99.1866 99.1866 1 1 0
0.119408 99.1867 99.1867 1 1 0
0.119411 99.1868 99.1868 1 1 0
0.119414 99.1869 99.1869 1 1 0
0.119416 99.187 99.187 1 1 0
0.119419 99.187 99.187 1 1 0
0.119422 99.1871 99.1871 1 1 0
0.119425 99.1872 99.1872 1 1 0
0.119428 99.1873 99.1873 1 1 0
0.119431 99.1874 99.1874 1 1 0
0.119434 99.1875 99.1875 1 1 0
0.119437 99.1876 99.1876 1 1 0
0.11944 99.1877 99.1877 1 1 0
0.119443 99.1877 99.1877 1 1 0
0.119446 99.1878 99.1878 1 1 0
0.119449 99.1879 99.1879 1 1 0
0.119452 99.188 99.188 1 1 0
0.119455 99.1881 99.1881 1 1 0
0.119458 99.1882 99.1882 1 1 0
0.11946 99.1883 99.1883 1 1 0
0.119463 99.1884 99.1884 1 1 0
0.119466 99.1884 99.1884 1 1 0
0.119469 99.1885 99.1885 1 1 0
0.119472 99.1886 99.1886 1 1 0
0.119475 99.1887 99.1887 1 1 0
0.119478 99.1888 99.1888 1 1 0
0.119481 99.1889 99.1889 1 1 0
0.119484 99.189 99.189 1 1 0
0.119487 99.1891 99.1891 1 1 0
0.11949 99.1891 99.1891 1 1 0
0.119493 99.1892 99.1892 1 1 0
0.119496 99.1893 99.1893 1 1 0
0.119499 99.1894 99.1894 1 1 0
0.119502 99.1895 99.1895 1 1 0
0.119504 99.1896 99.1896 1 1 0
0.119507 99.1897 99.1897 1 1 0
0.11951 99.1898 99.1898 1 1 0
0.119513 99.1898 99.1898 1 1 0
0.119516 99.1899 99.1899 1 1 0
0.119519 99.19 99.19 1 1 0
0.119522 99.1901 99.1901 1 1 0
0.119525 99.1902 99.1902 1 1 0
0.119528 99.1903 99.1903 1 1 0
0.119531 99.1904 99.1904 1 1 0
0.119534 99.1905 99.1905 1 1 0
0.119537 99.1905 99.1905 1 1 0
0.11954 99.1906 99.1906 1 1 0
0.119543 99.1907 99.1907 1 1 0
0.119546 99.1908 99.1908 1 1 0
0.119548 99.1909 99.1909 1 1 0
0.119551 99.191 99.191 1 1 0
0.119554 99.1911 99.1911 1 1 0
0.119557 99.1912 99.1912 1 1 0
0.11956 99.1913 99.1913 1 1 0
0.119563 99.1913 99.1913 1 1 0
0.119566 99.1914 99.1914 1 1 0
0.119569 99.1915 99.1915 1 1 0
0.119572 99.1916 99.1916 1 1 0
0.119575 99.1917 99.1917 1 1 0
0.119578 99.1918 99.1918 1 1 0
0.119581 99.1919 99.1919 1 1 0
0.119584 99.192 99.192 1 1 0
0.119587 99.192 99.192 1 1 0
0.11959 99.1921 99.1921 1 1 0
0.119593 99.1922 99.1922 1 1 0
0.119596 99.1923 99.1923 1 1 0
0.119598 99.1924 99.1924 1 1 0
0.119601 99.1925 99.1925 1 1 0
0.119604 99.1926 99.1926 1 1 0
0.119607 99.1927 99.1927 1 1 0
0.11961 99.1927 99.1927 1 1 0
0.119613 99.1928 99.1928 1 1 0
0.119616 99.1929 99.1929 1 1 0
0.119619 99.193 99.193 1 1 0
0.119622 99.1931 99.1931 1 1 0
0.119625 99.1932 99.1932 1 1 0
0.119628 99.1933 99.1933 1 1 0
0.119631 99.1934 99.1934 1 1 0
0.119634 99.1934 99.1934 1 1 0
0.119637 99.1935 99.1935 1 1 0
0.11964 99.1936 99.1936 1 1 0
0.119643 99.1937 99.1937 1 1 0
0.119646 99.1938 99.1938 1 1 0
0.119649 99.1939 99.1939 1 1 0
0.119651 99.194 99.194 1 1 0
0.119654 99.1941 99.1941 1 1 0
0.119657 99.1941 99.1941 1 1 0
0.11966 99.1942 99.1942 1 1 0
0.119663 99.1943 99.1943 1 1 0
0.119666 99.1944 99.1944 1 1 0
0.119669 99.1945 99.1945 1 1 0
0.119672 99.1946 99.1946 1 1 0
0.119675 99.1947 99.1947 1 1 0
0.119678 99.1948 99.1948 1 1 0
0.119681 99.1948 99.1948 1 1 0
0.119684 99.1949 99.1949 1 1 0
0.119687 99.195 99.195 1 1 0
0.11969 99.1951 99.1951 1 1 0
0.119693 99.1952 99.1952 1 1 0
0.119696 99.1953 99.1953 1 1 0
0.119699 99.1954 99.1954 1 1 0
0.119702 99.1955 99.1955 1 1 0
0.119705 99.1955 99.1955 1 1 0
0.119708 99.1956 99.1956 1 1 0
0.11971 99.1957 99.1957 1 1 0
0.119713 99.1958 99.1958 1 1 0
0.119716 99.1959 99.1959 1 1 0
0.119719 99.196 99.196 1 1 0
0.119722 99.1961 99.1961 1 1 0
0.119725 99.1962 99.1962 1 1 0
0.119728 99.1962 99.1962 1 1 0
0.119731 99.1963 99.1963 1 1 0
0.119734 99.1964 99.1964 1 1 0
0.119737 99.1965 99.1965 1 1 0
0.11974 99.1966 99.1966 1 1 0
0.119743 99.1967 99.1967 1 1 0
0.119746 99.1968 99.1968 1 1 0
0.119749 99.1969 99.1969 1 1 0
0.119752 99.197 99.197 1 1 0
0.119755 99.197 99.197 1 1 0
0.119758 99.1971 99.1971 1 1 0
0.119761 99.1972 99.1972 1 1 0
0.119764 99.1973 99.1973 1 1 0
0.119767 99.1974 99.1974 1 1 0
0.11977 99.1975 99.1975 1 1 0
0.119773 99.1976 99.1976 1 1 0
0.119775 99.1977 99.1977 1 1 0
0.119778 99.1977 99.1977 1 1 0
0.119781 99.1978 99.1978 1 1 0
0.119784 99.1979 99.1979 1 1 0
0.119787 99.198 99.198 1 1 0
0.11979 99.1981 99.1981 1 1 0
0.119793 99.1982 99.1982 1 1 0
0.119796 99.1983 99.1983 1 1 0
0.119799 99.1984 99.1984 1 1 0
0.119802 99.1984 99.1984 1 1 0
0.119805 99.1985 99.1985 1 1 0
0.119808 99.1986 99.1986 1 1 0
0.119811 99.1987 99.1987 1 1 0
0.119814 99.1988 99.1988 1 1 0
0.119817 99.1989 99.1989 1 1 0
0.11982 99.199 99.199 1 1 0
0.119823 99.1991 99.1991 1 1 0
0.119826 99.1991 99.1991 1 1 0
0.119829 99.1992 99.1992 1 1 0
0.119832 99.1993 99.1993 1 1 0
0.119835 99.1994 99.1994 1 1 0
0.119838 99.1995 99.1995 1 1 0
0.119841 99.1996 99.1996 1 1 0
0.119844 99.1997 99.1997 1 1 0
0.119846 99.1998 99.1998 1 1 0
0.119849 99.1998 99.1998 1 1 0
0.119852 99.1999 99.1999 1 1 0
0.119855 99.2 99.2 1 1 0
0.119858 99.2001 99.2001 1 1 0
0.119861 99.2002 99.2002 1 1 0
0.119864 99.2003 99.2003 1 1 0
0.119867 99.2004 99.2004 1 1 0
0.11987 99.2005 99.2005 1 1 0
0.119873 99.2005 99.2005 1 1 0
0.119876 99.2006 99.2006 1 1 0
0.119879 99.2007 99.2007 1 1 0
0.119882 99.2008 99.2008 1 1 0
0.119885 99.2009 99.2009 1 1 0
0.119888 99.201 99.201 1 1 0
0.119891 99.2011 99.2011 1 1 0
0.119894 99.2012 99.2012 1 1 0
0.119897 99.2012 99.2012 1 1 0
0.1199 99.2013 99.2013 1 1 0
0.119903 99.2014 99.2014 1 1 0
0.119906 99.2015 99.2015 1 1 0
0.119909 99.2016 99.2016 1 1 0
0.119912 99.2017 99.2017 1 1 0
0.119915 99.2018 99.2018 1 1 0
0.119918 99.2019 99.2019 1 1 0
0.119921 99.2019 99.2019 1 1 0
0.119924 99.202 99.202 1 1 0
0.119927 99.2021 99.2021 1 1 0
0.11993 99.2022 99.2022 1 1 0
0.119933 99.2023 99.2023 1 1 0
0.119935 99.2024 99.2024 1 1 0
0.119938 99.2025 99.2025 1 1 0
0.119941 99.2026 99.2026 1 1 0
0.119944 99.2026 99.2026 1 1 0
0.119947 99.2027 99.2027 1 1 0
0.11995 99.2028 99.2028 1 1 0
0.119953 99.2029 99.2029 1 1 0
0.119956 99.203 99.203 1 1 0
0.119959 99.2031 99.2031 1 1 0
0.119962 99.2032 99.2032 1 1 0
0.119965 99.2033 99.2033 1 1 0
0.119968 99.2034 99.2034 1 1 0
0.119971 99.2034 99.2034 1 1 0
0.119974 99.2035 99.2035 1 1 0
0.119977 99.2036 99.2036 1 1 0
0.11998 99.2037 99.2037 1 1 0
0.119983 99.2038 99.2038 1 1 0
0.119986 99.2039 99.2039 1 1 0
0.119989 99.204 99.204 1 1 0
0.119992 99.2041 99.2041 1 1 0
0.119995 99.2041 99.2041 1 1 0
0.119998 99.2042 99.2042 1 1 0
0.120001 99.2043 99.2043 1 1 0
0.120004 99.2044 99.2044 1 1 0
0.120007 99.2045 99.2045 1 1 0
0.12001 99.2046 99.2046 1 1 0
0.120013 99.2047 99.2047 1 1 0
0.120016 99.2048 99.2048 1 1 0
0.120019 99.2048 99.2048 1 1 0
0.120022 99.2049 99.2049 1 1 0
0.120025 99.205 99.205 1 1 0
0.120028 99.2051 99.2051 1 1 0
0.120031 99.2052 99.2052 1 1 0
0.120034 99.2053 99.2053 1 1 0
0.120037 99.2054 99.2054 1 1 0
0.12004 99.2055 99.2055 1 1 0
0.120043 99.2055 99.2055 1 1 0
0.120046 99.2056 99.2056 1 1 0
0.120048 99.2057 99.2057 1 1 0
0.120051 99.2058 99.2058 1 1 0
0.120054 99.2059 99.2059 1 1 0
0.120057 99.206 99.206 1 1 0
0.12006 99.2061 99.2061 1 1 0
0.120063 99.2062 99.2062 1 1 0
0.120066 99.2062 99.2062 1 1 0
0.120069 99.2063 99.2063 1 1 0
0.120072 99.2064 99.2064 1 1 0
0.120075 99.2065 99.2065 1 1 0
0.120078 99.2066 99.2066 1 1 0
0.120081 99.2067 99.2067 1 1 0
0.120084 99.2068 99.2068 1 1 0
0.120087 99.2069 99.2069 1 1 0
0.12009 99.2069 99.2069 1 1 0
0.120093 99.207 99.207 1 1 0
0.120096 99.2071 99.2071 1 1 0
0.120099 99.2072 99.2072 1 1 0
0.120102 99.2073 99.2073 1 1 0
0.120105 99.2074 99.2074 1 1 0
0.120108 99.2075 99.2075 1 1 0
0.120111 99.2076 99.2076 1 1 0
0.120114 99.2076 99.2076 1 1 0
0.120117 99.2077 99.2077 1 1 0
0.12012 99.2078 99.2078 1 1 0
0.120123 99.2079 99.2079 1 1 0
0.120126 99.208 99.208 1 1 0
0.120129 99.2081 99.2081 1 1 0
0.120132 99.2082 99.2082 1 1 0
0.120135 99.2083 99.2083 1 1 0
0.120138 99.2083 99.2083 1 1 0
0.120141 99.2084 99.2084 1 1 0
0.120144 99.2085 99.2085 1 1 0
0.120147 99.2086 99.2086 1 1 0
0.12015 99.2087 99.2087 1 1 0
0.120153 99.2088 99.2088 1 1 0
0.120156 99.2089 99.2089 1 1 0
0.120159 99.209 99.209 1 1 0
0.120162 99.209 99.209 1 1 0
0.120165 99.2091 99.2091 1 1 0
0.120168 99.2092 99.2092 1 1 0
0.120171 99.2093 99.2093 1 1 0
0.120174 99.2094 99.2094 1 1 0
0.120177 99.2095 99.2095 1 1 0
0.12018 99.2096 99.2096 1 1 0
0.120183 99.2097 99.2097 1 1 0
0.120186 99.2098 99.2098 1 1 0
0.120189 99.2098 99.2098 1 1 0
0.120192 99.2099 99.2099 1 1 0
0.120195 99.21 99.21 1 1 0
0.120198 99.2101 99.2101 1 1 0
0.120201 99.2102 99.2102 1 1 0
0.120204 99.2103 99.2103 1 1 0
0.120207 99.2104 99.2104 1 1 0
0.12021 99.2105 99.2105 1 1 0
0.120213 99.2105 99.2105 1 1 0
0.120216 99.2106 99.2106 1 1 0
0.120219 99.2107 99.2107 1 1 0
0.120222 99.2108 99.2108 1 1 0
0.120225 99.2109 99.2109 1 1 0
0.120228 99.211 99.211 1 1 0
0.120231 99.2111 99.2111 1 1 0
0.120234 99.2112 99.2112 1 1 0
0.120237 99.2112 99.2112 1 1 0
0.12024 99.2113 99.2113 1 1 0
0.120243 99.2114 99.2114 1 1 0
0.120246 99.2115 99.2115 1 1 0
0.120249 99.2116 99.2116 1 1 0
0.120252 99.2117 99.2117 1 1 0
0.120255 99.2118 99.2118 1 1 0
0.120258 99.2119 99.2119 1 1 0
0.120261 99.2119 99.2119 1 1 0
0.120264 99.212 99.212 1 1 0
0.120267 99.2121 99.2121 1 1 0
0.12027 99.2122 99.2122 1 1 0
0.120273 99.2123 99.2123 1 1 0
0.120276 99.2124 99.2124 1 1 0
0.120279 99.2125 99.2125 1 1 0
0.120282 99.2126 99.2126 1 1 0
0.120285 99.2126 99.2126 1 1 0
0.120288 99.2127 99.2127 1 1 0
0.120291 99.2128 99.2128 1 1 0
0.120294 99.2129 99.2129 1 1 0
0.120297 99.213 99.213 1 1 0
0.1203 99.2131 99.2131 1 1 0
0.120303 99.2132 99.2132 1 1 0
0.120306 99.2133 99.2133 1 1 0
0.120309 99.2133 99.2133 1 1 0
0.120312 99.2134 99.2134 1 1 0
0.120315 99.2135 99.2135 1 1 0
0.120318 99.2136 99.2136 1 1 0
0.120321 99.2137 99.2137 1 1 0
0.120324 99.2138 99.2138 1 1 0
0.120327 99.2139 99.2139 1 1 0
0.12033 99.214 99.214 1 1 0
0.120333 99.214 99.214 1 1 0
0.120336 99.2141 99.2141 1 1 0
0.120339 99.2142 99.2142 1 1 0
0.120342 99.2143 99.2143 1 1 0
0.120345 99.2144 99.2144 1 1 0
0.120348 99.2145 99.2145 1 1 0
0.120351 99.2146 99.2146 1 1 0
0.120354 99.2147 99.2147 1 1 0
0.120357 99.2147 99.2147 1 1 0
0.12036 99.2148 99.2148 1 1 0
0.120363 99.2149 99.2149 1 1 0
0.120366 99.215 99.215 1 1 0
0.120369 99.2151 99.2151 1 1 0
0.120372 99.2152 99.2152 1 1 0
0.120375 99.2153 99.2153 1 1 0
0.120378 99.2154 99.2154 1 1 0
0.120381 99.2154 99.2154 1 1 0
0.120384 99.2155 99.2155 1 1 0
0.120387 99.2156 99.2156 1 1 0
0.12039 99.2157 99.2157 1 1 0
0.120393 99.2158 99.2158 1 1 0
0.120396 99.2159 99.2159 1 1 0
0.120399 99.216 99.216 1 1 0
0.120402 99.2161 99.2161 1 1 0
0.120405 99.2162 99.2162 1 1 0
0.120408 99.2162 99.2162 1 1 0
0.120411 99.2163 99.2163 1 1 0
0.120414 99.2164 99.2164 1 1 0
0.120417 99.2165 99.2165 1 1 0
0.12042 99.2166 99.2166 1 1 0
0.120423 99.2167 99.2167 1 1 0
0.120426 99.2168 99.2168 1 1 0
0.120429 99.2169 99.2169 1 1 0
0.120432 99.2169 99.2169 1 1 0
0.120435 99.217 99.217 1 1 0
0.120438 99.2171 99.2171 1 1 0
0.120441 99.2172 99.2172 1 1 0
0.120444 99.2173 99.2173 1 1 0
0.120447 99.2174 99.2174 1 1 0
0.12045 99.2175 99.2175 1 1 0
0.120453 99.2176 99.2176 1 1 0
0.120456 99.2176 99.2176 1 1 0
0.120459 99.2177 99.2177 1 1 0
0.120462 99.2178 99.2178 1 1 0
0.120465 99.2179 99.2179 1 1 0
0.120468 99.218 99.218 1 1 0
0.120471 99.2181 99.2181 1 1 0
0.120474 99.2182 99.2182 1 1 0
0.120477 99.2183 99.2183 1 1 0
0.12048 99.2183 99.2183 1 1 0
0.120483 99.2184 99.2184 1 1 0
0.120486 99.2185 99.2185 1 1 0
0.120489 99.2186 99.2186 1 1 0
0.120492 99.2187 99.2187 1 1 0
0.120495 99.2188 99.2188 1 1 0
0.120498 99.2189 99.2189 1 1 0
0.120501 99.219 99.219 1 1 0
0.120504 99.219 99.219 1 1 0
0.120507 99.2191 99.2191 1 1 0
0.12051 99.2192 99.2192 1 1 0
0.120513 99.2193 99.2193 1 1 0
0.120516 99.2194 99.2194 1 1 0
0.120519 99.2195 99.2195 1 1 0
0.120522 99.2196 99.2196 1 1 0
0.120525 99.2197 99.2197 1 1 0
0.120528 99.2197 99.2197 1 1 0
0.120531 99.2198 99.2198 1 1 0
0.120534 99.2199 99.2199 1 1 0
0.120537 99.22 99.22 1 1 0
0.12054 99.2201 99.2201 1 1 0
0.120543 99.2202 99.2202 1 1 0
0.120546 99.2203 99.2203 1 1 0
0.120549 99.2204 99.2204 1 1 0
0.120552 99.2204 99.2204 1 1 0
0.120555 99.2205 99.2205 1 1 0
0.120558 99.2206 99.2206 1 1 0
0.120561 99.2207 99.2207 1 1 0
0.120564 99.2208 99.2208 1 1 0
0.120567 99.2209 99.2209 1 1 0
0.12057 99.221 99.221 1 1 0
0.120573 99.2211 99.2211 1 1 0
0.120576 99.2211 99.2211 1 1 0
0.12058 99.2212 99.2212 1 1 0
0.120583 99.2213 99.2213 1 1 0
0.120586 99.2214 99.2214 1 1 0
0.120589 99.2215 99.2215 1 1 0
0.120592 99.2216 99.2216 1 1 0
0.120595 99.2217 99.2217 1 1 0
0.120598 99.2218 99.2218 1 1 0
0.120601 99.2218 99.2218 1 1 0
0.120604 99.2219 99.2219 1 1 0
0.120607 99.222 99.222 1 1 0
0.12061 99.2221 99.2221 1 1 0
0.120613 99.2222 99.2222 1 1 0
0.120616 99.2223 99.2223 1 1 0
0.120619 99.2224 99.2224 1 1 0
0.120622 99.2225 99.2225 1 1 0
0.120625 99.2225 99.2225 1 1 0
0.120628 99.2226 99.2226 1 1 0
0.120631 99.2227 99.2227 1 1 0
0.120634 99.2228 99.2228 1 1 0
0.120637 99.2229 99.2229 1 1 0
0.12064 99.223 99.223 1 1 0
0.120643 99.2231 99.2231 1 1 0
0.120646 99.2232 99.2232 1 1 0
0.120649 99.2232 99.2232 1 1 0
0.120652 99.2233 99.2233 1 1 0
0.120655 99.2234 99.2234 1 1 0
0.120658 99.2235 99.2235 1 1 0
0.120661 99.2236 99.2236 1 1 0
0.120664 99.2237 99.2237 1 1 0
0.120667 99.2238 99.2238 1 1 0
0.12067 99.2239 99.2239 1 1 0
0.120673 99.224 99.224 1 1 0
0.120676 99.224 99.224 1 1 0
0.120679 99.2241 99.2241 1 1 0
0.120682 99.2242 99.2242 1 1 0
0.120685 99.2243 99.2243 1 1 0
0.120688 99.2244 99.2244 1 1 0
0.120692 99.2245 99.2245 1 1 0
0.120695 99.2246 99.2246 1 1 0
0.120698 99.2247 99.2247 1 1 0
0.120701 99.2247 99.2247 1 1 0
0.120704 99.2248 99.2248 1 1 0
0.120707 99.2249 99.2249 1 1 0
0.12071 99.225 99.225 1 1 0
0.120713 99.2251 99.2251 1 1 0
0.120716 99.2252 99.2252 1 1 0
0.120719 99.2253 99.2253 1 1 0
0.120722 99.2254 99.2254 1 1 0
0.120725 99.2254 99.2254 1 1 0
0.120728 99.2255 99.2255 1 1 0
0.120731 99.2256 99.2256 1 1 0
0.120734 99.2257 99.2257 1 1 0
0.120737 99.2258 99.2258 1 1 0
0.12074 99.2259 99.2259 1 1 0
0.120743 99.226 99.226 1 1 0
0.120746 99.2261 99.2261 1 1 0
0.120749 99.2261 99.2261 1 1 0
0.120752 99.2262 99.2262 1 1 0
0.120755 99.2263 99.2263 1 1 0
0.120758 99.2264 99.2264 1 1 0
0.120761 99.2265 99.2265 1 1 0
0.120764 99.2266 99.2266 1 1 0
0.120767 99.2267 99.2267 1 1 0
0.12077 99.2268 99.2268 1 1 0
0.120773 99.2268 99.2268 1 1 0
0.120776 99.2269 99.2269 1 1 0
0.12078 99.227 99.227 1 1 0
0.120783 99.2271 99.2271 1 1 0
0.120786 99.2272 99.2272 1 1 0
0.120789 99.2273 99.2273 1 1 0
0.120792 99.2274 99.2274 1 1 0
0.120795 99.2275 99.2275 1 1 0
0.120798 99.2275 99.2275 1 1 0
0.120801 99.2276 99.2276 1 1 0
0.120804 99.2277 99.2277 1 1 0
0.120807 99.2278 99.2278 1 1 0
0.12081 99.2279 99.2279 1 1 0
0.120813 99.228 99.228 1 1 0
0.120816 99.2281 99.2281 1 1 0
0.120819 99.2282 99.2282 1 1 0
0.120822 99.2282 99.2282 1 1 0
0.120825 99.2283 99.2283 1 1 0
0.120828 99.2284 99.2284 1 1 0
0.120831 99.2285 99.2285 1 1 0
0.120834 99.2286 99.2286 1 1 0
0.120837 99.2287 99.2287 1 1 0
0.12084 99.2288 99.2288 1 1 0
0.120843 99.2289 99.2289 1 1 0
0.120846 99.2289 99.2289 1 1 0
0.120849 99.229 99.229 1 1 0
0.120853 99.2291 99.2291 1 1 0
0.120856 99.2292 99.2292 1 1 0
0.120859 99.2293 99.2293 1 1 0
0.120862 99.2294 99.2294 1 1 0
0.120865 99.2295 99.2295 1 1 0
0.120868 99.2296 99.2296 1 1 0
0.120871 99.2296 99.2296 1 1 0
0.120874 99.2297 99.2297 1 1 0
0.120877 99.2298 99.2298 1 1 0
0.12088 99.2299 99.2299 1 1 0
0.120883 99.23 99.23 1 1 0
0.120886 99.2301 99.2301 1 1 0
0.120889 99.2302 99.2302 1 1 0
0.120892 99.2303 99.2303 1 1 0
0.120895 99.2303 99.2303 1 1 0
0.120898 99.2304 99.2304 1 1 0
0.120901 99.2305 99.2305 1 1 0
0.120904 99.2306 99.2306 1 1 0
0.120907 99.2307 99.2307 1 1 0
0.12091 99.2308 99.2308 1 1 0
0.120913 99.2309 99.2309 1 1 0
0.120917 99.231 99.231 1 1 0
0.12092 99.231 99.231 1 1 0
0.120923 99.2311 99.2311 1 1 0
0.120926 99.2312 99.2312 1 1 0
0.120929 99.2313 99.2313 1 1 0
0.120932 99.2314 99.2314 1 1 0
0.120935 99.2315 99.2315 1 1 0
0.120938 99.2316 99.2316 1 1 0
0.120941 99.2317 99.2317 1 1 0
0.120944 99.2317 99.2317 1 1 0
0.120947 99.2318 99.2318 1 1 0
0.12095 99.2319 99.2319 1 1 0
0.120953 99.232 99.232 1 1 0
0.120956 99.2321 99.2321 1 1 0
0.120959 99.2322 99.2322 1 1 0
0.120962 99.2323 99.2323 1 1 0
0.120965 99.2324 99.2324 1 1 0
0.120968 99.2325 99.2325 1 1 0
0.120971 99.2325 99.2325 1 1 0
0.120975 99.2326 99.2326 1 1 0
0.120978 99.2327 99.2327 1 1 0
0.120981 99.2328 99.2328 1 1 0
0.120984 99.2329 99.2329 1 1 0
0.120987 99.233 99.233 1 1 0
0.12099 99.2331 99.2331 1 1 0
0.120993 99.2332 99.2332 1 1 0
0.120996 99.2332 99.2332 1 1 0
0.120999 99.2333 99.2333 1 1 0
0.121002 99.2334 99.2334 1 1 0
0.121005 99.2335 99.2335 1 1 0
0.121008 99.2336 99.2336 1 1 0
0.121011 99.2337 99.2337 1 1 0
0.121014 99.2338 99.2338 1 1 0
0.121017 99.2339 99.2339 1 1 0
0.12102 99.2339 99.2339 1 1 0
0.121023 99.234 99.234 1 1 0
0.121026 99.2341 99.2341 1 1 0
0.12103 99.2342 99.2342 1 1 0
0.121033 99.2343 99.2343 1 1 0
0.121036 99.2344 99.2344 1 1 0
0.121039 99.2345 99.2345 1 1 0
0.121042 99.2346 99.2346 1 1 0
0.121045 99.2346 99.2346 1 1 0
0.121048 99.2347 99.2347 1 1 0
0.121051 99.2348 99.2348 1 1 0
0.121054 99.2349 99.2349 1 1 0
0.121057 99.235 99.235 1 1 0
0.12106 99.2351 99.2351 1 1 0
0.121063 99.2352 99.2352 1 1 0
0.121066 99.2353 99.2353 1 1 0
0.121069 99.2353 99.2353 1 1 0
0.121072 99.2354 99.2354 1 1 0
0.121075 99.2355 99.2355 1 1 0
0.121079 99.2356 99.2356 1 1 0
0.121082 99.2357 99.2357 1 1 0
0.121085 99.2358 99.2358 1 1 0
0.121088 99.2359 99.2359 1 1 0
0.121091 99.236 99.236 1 1 0
0.121094 99.236 99.236 1 1 0
0.121097 99.2361 99.2361 1 1 0
0.1211 99.2362 99.2362 1 1 0
0.121103 99.2363 99.2363 1 1 0
0.121106 99.2364 99.2364 1 1 0
0.121109 99.2365 99.2365 1 1 0
0.121112 99.2366 99.2366 1 1 0
0.121115 99.2367 99.2367 1 1 0
0.121118 99.2367 99.2367 1 1 0
0.121121 99.2368 99.2368 1 1 0
0.121125 99.2369 99.2369 1 1 0
0.121128 99.237 99.237 1 1 0
0.121131 99.2371 99.2371 1 1 0
0.121134 99.2372 99.2372 1 1 0
0.121137 99.2373 99.2373 1 1 0
0.12114 99.2374 99.2374 1 1 0
0.121143 99.2374 99.2374 1 1 0
0.121146 99.2375 99.2375 1 1 0
0.121149 99.2376 99.2376 1 1 0
0.121152 99.2377 99.2377 1 1 0
0.121155 99.2378 99.2378 1 1 0
0.121158 99.2379 99.2379 1 1 0
0.121161 99.238 99.238 1 1 0
0.121164 99.2381 99.2381 1 1 0
0.121167 99.2381 99.2381 1 1 0
0.121171 99.2382 99.2382 1 1 0
0.121174 99.2383 99.2383 1 1 0
0.121177 99.2384 99.2384 1 1 0
0.12118 99.2385 99.2385 1 1 0
0.121183 99.2386 99.2386 1 1 0
0.121186 99.2387 99.2387 1 1 0
0.121189 99.2388 99.2388 1 1 0
0.121192 99.2388 99.2388 1 1 0
0.121195 99.2389 99.2389 1 1 0
0.121198 99.239 99.239 1 1 0
0.121201 99.2391 99.2391 1 1 0
0.121204 99.2392 99.2392 1 1 0
0.121207 99.2393 99.2393 1 1 0
0.12121 99.2394 99.2394 1 1 0
0.121214 99.2395 99.2395 1 1 0
0.121217 99.2395 99.2395 1 1 0
0.12122 99.2396 99.2396 1 1 0
0.121223 99.2397 99.2397 1 1 0
0.121226 99.2398 99.2398 1 1 0
0.121229 99.2399 99.2399 1 1 0
0.121232 99.24 99.24 1 1 0
0.121235 99.2401 99.2401 1 1 0
0.121238 99.2402 99.2402 1 1 0
0.121241 99.2402 99.2402 1 1 0
0.121244 99.2403 99.2403 1 1 0
0.121247 99.2404 99.2404 1 1 0
0.12125 99.2405 99.2405 1 1 0
0.121254 99.2406 99.2406 1 1 0
0.121257 99.2407 99.2407 1 1 0
0.12126 99.2408 99.2408 1 1 0
0.121263 99.2409 99.2409 1 1 0
0.121266 99.2409 99.2409 1 1 0
0.121269 99.241 99.241 1 1 0
0.121272 99.2411 99.2411 1 1 0
0.121275 99.2412 99.2412 1 1 0
0.121278 99.2413 99.2413 1 1 0
0.121281 99.2414 99.2414 1 1 0
0.121284 99.2415 99.2415 1 1 0
0.121287 99.2416 99.2416 1 1 0
0.121291 99.2417 99.2417 1 1 0
0.121294 99.2417 99.2417 1 1 0
0.121297 99.2418 99.2418 1 1 0
0.1213 99.2419 99.2419 1 1 0
0.121303 99.242 99.242 1 1 0
0.121306 99.2421 99.2421 1 1 0
