0.11114 101.436 101.436 1 1 0
0.111143 101.428 101.428 1 1 0
0.111145 101.42 101.42 1 1 0
0.111148 101.412 101.412 1 1 0
0.11115 101.404 101.404 1 1 0
0.111152 101.395 101.395 1 1 0
0.111155 101.387 101.387 1 1 0
0.111157 101.379 101.379 1 1 0
0.11116 101.371 101.371 1 1 0
0.111162 101.363 101.363 1 1 0
0.111164 101.355 101.355 1 1 0
0.111167 101.347 101.347 1 1 0
0.111169 101.339 101.339 1 1 0
0.111171 101.331 101.331 1 1 0
0.111174 101.322 101.322 1 1 0
0.111176 101.314 101.314 1 1 0
0.111179 101.306 101.306 1 1 0
0.111181 101.298 101.298 1 1 0
0.111183 101.29 101.29 1 1 0
0.111186 101.282 101.282 1 1 0
0.111188 101.274 101.274 1 1 0
0.11119 101.266 101.266 1 1 0
0.111193 101.257 101.257 1 1 0
0.111195 101.249 101.249 1 1 0
0.111198 101.241 101.241 1 1 0
0.1112 101.233 101.233 1 1 0
0.111202 101.225 101.225 1 1 0
0.111205 101.217 101.217 1 1 0
0.111207 101.209 101.209 1 1 0
0.111209 101.201 101.201 1 1 0
0.111212 101.193 101.193 1 1 0
0.111214 101.184 101.184 1 1 0
0.111217 101.176 101.176 1 1 0
0.111219 101.168 101.168 1 1 0
0.111221 101.16 101.16 1 1 0
0.111224 101.152 101.152 1 1 0
0.111226 101.144 101.144 1 1 0
0.111229 101.136 101.136 1 1 0
0.111231 101.128 101.128 1 1 0
0.111233 101.119 101.119 1 1 0
0.111236 101.111 101.111 1 1 0
0.111238 101.103 101.103 1 1 0
0.11124 101.095 101.095 1 1 0
0.111243 101.087 101.087 1 1 0
0.111245 101.079 101.079 1 1 0
0.111248 101.071 101.071 1 1 0
0.11125 101.063 101.063 1 1 0
0.111252 101.055 101.055 1 1 0
0.111255 101.046 101.046 1 1 0
0.111257 101.038 101.038 1 1 0
0.111259 101.03 101.03 1 1 0
0.111262 101.022 101.022 1 1 0
0.111264 101.014 101.014 1 1 0
0.111267 101.006 101.006 1 1 0
0.111269 100.998 100.998 1 1 0
0.111271 100.99 100.99 1 1 0
0.111274 100.981 100.981 1 1 0
0.111276 100.973 100.973 1 1 0
0.111279 100.965 100.965 1 1 0
0.111281 100.957 100.957 1 1 0
0.111283 100.949 100.949 1 1 0
0.111286 100.941 100.941 1 1 0
0.111288 100.933 100.933 1 1 0
0.11129 100.925 100.925 1 1 0
0.111293 100.917 100.917 1 1 0
0.111295 100.908 100.908 1 1 0
0.111298 100.9 100.9 1 1 0
0.1113 100.892 100.892 1 1 0
0.111302 100.884 100.884 1 1 0
0.111305 100.876 100.876 1 1 0
0.111307 100.868 100.868 1 1 0
0.11131 100.86 100.86 1 1 0
0.111312 100.852 100.852 1 1 0
0.111314 100.843 100.843 1 1 0
0.111317 100.835 100.835 1 1 0
0.111319 100.827 100.827 1 1 0
0.111322 100.819 100.819 1 1 0
0.111324 100.811 100.811 1 1 0
0.111326 100.803 100.803 1 1 0
0.111329 100.795 100.795 1 1 0
0.111331 100.787 100.787 1 1 0
0.111333 100.779 100.779 1 1 0
0.111336 100.77 100.77 1 1 0
0.111338 100.762 100.762 1 1 0
0.111341 100.754 100.754 1 1 0
0.111343 100.746 100.746 1 1 0
0.111345 100.738 100.738 1 1 0
0.111348 100.73 100.73 1 1 0
0.11135 100.722 100.722 1 1 0
0.111353 100.714 100.714 1 1 0
0.111355 100.705 100.705 1 1 0
0.111357 100.697 100.697 1 1 0
0.11136 100.689 100.689 1 1 0
0.111362 100.681 100.681 1 1 0
0.111364 100.673 100.673 1 1 0
0.111367 100.665 100.665 1 1 0
0.111369 100.657 100.657 1 1 0
0.111372 100.649 100.649 1 1 0
0.111374 100.641 100.641 1 1 0
0.111376 100.632 100.632 1 1 0
0.111379 100.624 100.624 1 1 0
0.111381 100.616 100.616 1 1 0
0.111384 100.608 100.608 1 1 0
0.111386 100.6 100.6 1 1 0
0.111388 100.592 100.592 1 1 0
0.111391 100.584 100.584 1 1 0
0.111393 100.576 100.576 1 1 0
0.111396 100.567 100.567 1 1 0
0.111398 100.559 100.559 1 1 0
0.1114 100.551 100.551 1 1 0
0.111403 100.543 100.543 1 1 0
0.111405 100.535 100.535 1 1 0
0.111408 100.527 100.527 1 1 0
0.11141 100.519 100.519 1 1 0
0.111412 100.511 100.511 1 1 0
0.111415 100.503 100.503 1 1 0
0.111417 100.494 100.494 1 1 0
0.111419 100.486 100.486 1 1 0
0.111422 100.478 100.478 1 1 0
0.111424 100.47 100.47 1 1 0
0.111427 100.462 100.462 1 1 0
0.111429 100.454 100.454 1 1 0
0.111431 100.446 100.446 1 1 0
0.111434 100.438 100.438 1 1 0
0.111436 100.429 100.429 1 1 0
0.111439 100.421 100.421 1 1 0
0.111441 100.413 100.413 1 1 0
0.111443 100.405 100.405 1 1 0
0.111446 100.397 100.397 1 1 0
0.111448 100.389 100.389 1 1 0
0.111451 100.381 100.381 1 1 0
0.111453 100.373 100.373 1 1 0
0.111455 100.365 100.365 1 1 0
0.111458 100.356 100.356 1 1 0
0.11146 100.348 100.348 1 1 0
0.111463 100.34 100.34 1 1 0
0.111465 100.332 100.332 1 1 0
0.111467 100.324 100.324 1 1 0
0.11147 100.316 100.316 1 1 0
0.111472 100.308 100.308 1 1 0
0.111475 100.3 100.3 1 1 0
0.111477 100.291 100.291 1 1 0
0.111479 100.283 100.283 1 1 0
0.111482 100.275 100.275 1 1 0
0.111484 100.267 100.267 1 1 0
0.111487 100.259 100.259 1 1 0
0.111489 100.251 100.251 1 1 0
0.111491 100.243 100.243 1 1 0
0.111494 100.235 100.235 1 1 0
0.111496 100.227 100.227 1 1 0
0.111499 100.218 100.218 1 1 0
0.111501 100.21 100.21 1 1 0
0.111503 100.202 100.202 1 1 0
0.111506 100.194 100.194 1 1 0
0.111508 100.186 100.186 1 1 0
0.11151 100.178 100.178 1 1 0
0.111513 100.17 100.17 1 1 0
0.111515 100.162 100.162 1 1 0
0.111518 100.153 100.153 1 1 0
0.11152 100.145 100.145 1 1 0
0.111522 100.137 100.137 1 1 0
0.111525 100.129 100.129 1 1 0
0.111527 100.121 100.121 1 1 0
0.11153 100.113 100.113 1 1 0
0.111532 100.105 100.105 1 1 0
0.111534 100.097 100.097 1 1 0
0.111537 100.089 100.089 1 1 0
0.111539 100.08 100.08 1 1 0
0.111542 100.072 100.072 1 1 0
0.111544 100.064 100.064 1 1 0
0.111546 100.056 100.056 1 1 0
0.111549 100.048 100.048 1 1 0
0.111551 100.04 100.04 1 1 0
0.111554 100.032 100.032 1 1 0
0.111556 100.024 100.024 1 1 0
0.111558 100.015 100.015 1 1 0
0.111561 100.007 100.007 1 1 0
0.111563 99.9993 99.9993 1 1 0
0.111566 99.9911 99.9911 1 1 0
0.111568 99.983 99.983 1 1 0
0.11157 99.9749 99.9749 1 1 0
0.111573 99.9668 99.9668 1 1 0
0.111575 99.9587 99.9587 1 1 0
0.111578 99.9506 99.9506 1 1 0
0.11158 99.9424 99.9424 1 1 0
0.111582 99.9343 99.9343 1 1 0
0.111585 99.9262 99.9262 1 1 0
0.111587 99.9181 99.9181 1 1 0
0.11159 99.91 99.91 1 1 0
0.111592 99.9018 99.9018 1 1 0
0.111594 99.8937 99.8937 1 1 0
0.111597 99.8856 99.8856 1 1 0
0.111599 99.8775 99.8775 1 1 0
0.111602 99.8694 99.8694 1 1 0
0.111604 99.8613 99.8613 1 1 0
0.111607 99.8531 99.8531 1 1 0
0.111609 99.845 99.845 1 1 0
0.111611 99.8369 99.8369 1 1 0
0.111614 99.8288 99.8288 1 1 0
0.111616 99.8207 99.8207 1 1 0
0.111619 99.8126 99.8126 1 1 0
0.111621 99.8044 99.8044 1 1 0
0.111623 99.7963 99.7963 1 1 0
0.111626 99.7882 99.7882 1 1 0
0.111628 99.7801 99.7801 1 1 0
0.111631 99.772 99.772 1 1 0
0.111633 99.7639 99.7639 1 1 0
0.111635 99.7557 99.7557 1 1 0
0.111638 99.7476 99.7476 1 1 0
0.11164 99.7395 99.7395 1 1 0
0.111643 99.7314 99.7314 1 1 0
0.111645 99.7233 99.7233 1 1 0
0.111647 99.7151 99.7151 1 1 0
0.11165 99.707 99.707 1 1 0
0.111652 99.6989 99.6989 1 1 0
0.111655 99.6908 99.6908 1 1 0
0.111657 99.6827 99.6827 1 1 0
0.111659 99.6746 99.6746 1 1 0
0.111662 99.6664 99.6664 1 1 0
0.111664 99.6583 99.6583 1 1 0
0.111667 99.6502 99.6502 1 1 0
0.111669 99.6421 99.6421 1 1 0
0.111671 99.634 99.634 1 1 0
0.111674 99.6259 99.6259 1 1 0
0.111676 99.6177 99.6177 1 1 0
0.111679 99.6096 99.6096 1 1 0
0.111681 99.6015 99.6015 1 1 0
0.111683 99.5934 99.5934 1 1 0
0.111686 99.5853 99.5853 1 1 0
0.111688 99.5771 99.5771 1 1 0
0.111691 99.569 99.569 1 1 0
0.111693 99.5609 99.5609 1 1 0
0.111696 99.5528 99.5528 1 1 0
0.111698 99.5447 99.5447 1 1 0
0.1117 99.5366 99.5366 1 1 0
0.111703 99.5284 99.5284 1 1 0
0.111705 99.5203 99.5203 1 1 0
0.111708 99.5122 99.5122 1 1 0
0.11171 99.5041 99.5041 1 1 0
0.111712 99.496 99.496 1 1 0
0.111715 99.4879 99.4879 1 1 0
0.111717 99.4797 99.4797 1 1 0
0.11172 99.4716 99.4716 1 1 0
0.111722 99.4635 99.4635 1 1 0
0.111724 99.4554 99.4554 1 1 0
0.111727 99.4473 99.4473 1 1 0
0.111729 99.4391 99.4391 1 1 0
0.111732 99.431 99.431 1 1 0
0.111734 99.4229 99.4229 1 1 0
0.111736 99.4148 99.4148 1 1 0
0.111739 99.4067 99.4067 1 1 0
0.111741 99.3986 99.3986 1 1 0
0.111744 99.3904 99.3904 1 1 0
0.111746 99.3823 99.3823 1 1 0
0.111749 99.3742 99.3742 1 1 0
0.111751 99.3661 99.3661 1 1 0
0.111753 99.358 99.358 1 1 0
0.111756 99.3499 99.3499 1 1 0
0.111758 99.3417 99.3417 1 1 0
0.111761 99.3336 99.3336 1 1 0
0.111763 99.3255 99.3255 1 1 0
0.111765 99.3174 99.3174 1 1 0
0.111768 99.3093 99.3093 1 1 0
0.11177 99.3012 99.3012 1 1 0
0.111773 99.293 99.293 1 1 0
0.111775 99.2849 99.2849 1 1 0
0.111777 99.2768 99.2768 1 1 0
0.11178 99.2687 99.2687 1 1 0
0.111782 99.2606 99.2606 1 1 0
0.111785 99.2524 99.2524 1 1 0
0.111787 99.2443 99.2443 1 1 0
0.11179 99.2362 99.2362 1 1 0
0.111792 99.2281 99.2281 1 1 0
0.111794 99.22 99.22 1 1 0
0.111797 99.2119 99.2119 1 1 0
0.111799 99.2037 99.2037 1 1 0
0.111802 99.1956 99.1956 1 1 0
0.111804 99.1875 99.1875 1 1 0
0.111806 99.1794 99.1794 1 1 0
0.111809 99.1713 99.1713 1 1 0
0.111811 99.1632 99.1632 1 1 0
0.111814 99.155 99.155 1 1 0
0.111816 99.1469 99.1469 1 1 0
0.111819 99.1388 99.1388 1 1 0
0.111821 99.1307 99.1307 1 1 0
0.111823 99.1226 99.1226 1 1 0
0.111826 99.1144 99.1144 1 1 0
0.111828 99.1063 99.1063 1 1 0
0.111831 99.0982 99.0982 1 1 0
0.111833 99.0901 99.0901 1 1 0
0.111835 99.082 99.082 1 1 0
0.111838 99.0739 99.0739 1 1 0
0.11184 99.0657 99.0657 1 1 0
0.111843 99.0576 99.0576 1 1 0
0.111845 99.0495 99.0495 1 1 0
0.111848 99.0414 99.0414 1 1 0
0.11185 99.0333 99.0333 1 1 0
0.111852 99.0252 99.0252 1 1 0
0.111855 99.017 99.017 1 1 0
0.111857 99.0089 99.0089 1 1 0
0.11186 99.0008 99.0008 1 1 0
0.111862 98.9927 98.9927 1 1 0
0.111864 98.9846 98.9846 1 1 0
0.111867 98.9764 98.9764 1 1 0
0.111869 98.9683 98.9683 1 1 0
0.111872 98.9602 98.9602 1 1 0
0.111874 98.9521 98.9521 1 1 0
0.111877 98.944 98.944 1 1 0
0.111879 98.9359 98.9359 1 1 0
0.111881 98.9277 98.9277 1 1 0
0.111884 98.9196 98.9196 1 1 0
0.111886 98.9115 98.9115 1 1 0
0.111889 98.9034 98.9034 1 1 0
0.111891 98.8953 98.8953 1 1 0
0.111893 98.8872 98.8872 1 1 0
0.111896 98.879 98.879 1 1 0
0.111898 98.8709 98.8709 1 1 0
0.111901 98.8628 98.8628 1 1 0
0.111903 98.8547 98.8547 1 1 0
0.111906 98.8466 98.8466 1 1 0
0.111908 98.8385 98.8385 1 1 0
0.11191 98.8303 98.8303 1 1 0
0.111913 98.8222 98.8222 1 1 0
0.111915 98.8141 98.8141 1 1 0
0.111918 98.806 98.806 1 1 0
0.11192 98.7979 98.7979 1 1 0
0.111922 98.7897 98.7897 1 1 0
0.111925 98.7816 98.7816 1 1 0
0.111927 98.7735 98.7735 1 1 0
0.11193 98.7654 98.7654 1 1 0
0.111932 98.7573 98.7573 1 1 0
0.111935 98.7492 98.7492 1 1 0
0.111937 98.741 98.741 1 1 0
0.111939 98.7329 98.7329 1 1 0
0.111942 98.7248 98.7248 1 1 0
0.111944 98.7167 98.7167 1 1 0
0.111947 98.7086 98.7086 1 1 0
0.111949 98.7005 98.7005 1 1 0
0.111952 98.6923 98.6923 1 1 0
0.111954 98.6842 98.6842 1 1 0
0.111956 98.6761 98.6761 1 1 0
0.111959 98.668 98.668 1 1 0
0.111961 98.6599 98.6599 1 1 0
0.111964 98.6517 98.6517 1 1 0
0.111966 98.6436 98.6436 1 1 0
0.111969 98.6355 98.6355 1 1 0
0.111971 98.6274 98.6274 1 1 0
0.111973 98.6193 98.6193 1 1 0
0.111976 98.6112 98.6112 1 1 0
0.111978 98.603 98.603 1 1 0
0.111981 98.5949 98.5949 1 1 0
0.111983 98.5868 98.5868 1 1 0
0.111985 98.5787 98.5787 1 1 0
0.111988 98.5706 98.5706 1 1 0
0.11199 98.5625 98.5625 1 1 0
0.111993 98.5543 98.5543 1 1 0
0.111995 98.5462 98.5462 1 1 0
0.111998 98.5381 98.5381 1 1 0
0.112 98.53 98.53 1 1 0
0.112002 98.5219 98.5219 1 1 0
0.112005 98.5138 98.5138 1 1 0
0.112007 98.5056 98.5056 1 1 0
0.11201 98.4975 98.4975 1 1 0
0.112012 98.4894 98.4894 1 1 0
0.112015 98.4813 98.4813 1 1 0
0.112017 98.4732 98.4732 1 1 0
0.112019 98.465 98.465 1 1 0
0.112022 98.4569 98.4569 1 1 0
0.112024 98.4488 98.4488 1 1 0
0.112027 98.4407 98.4407 1 1 0
0.112029 98.4326 98.4326 1 1 0
0.112032 98.4245 98.4245 1 1 0
0.112034 98.4163 98.4163 1 1 0
0.112036 98.4082 98.4082 1 1 0
0.112039 98.4001 98.4001 1 1 0
0.112041 98.392 98.392 1 1 0
0.112044 98.3839 98.3839 1 1 0
0.112046 98.3758 98.3758 1 1 0
0.112049 98.3676 98.3676 1 1 0
0.112051 98.3595 98.3595 1 1 0
0.112053 98.3514 98.3514 1 1 0
0.112056 98.3433 98.3433 1 1 0
0.112058 98.3352 98.3352 1 1 0
0.112061 98.327 98.327 1 1 0
0.112063 98.3189 98.3189 1 1 0
0.112066 98.3108 98.3108 1 1 0
0.112068 98.3027 98.3027 1 1 0
0.11207 98.2946 98.2946 1 1 0
0.112073 98.2865 98.2865 1 1 0
0.112075 98.2783 98.2783 1 1 0
0.112078 98.2702 98.2702 1 1 0
0.11208 98.2621 98.2621 1 1 0
0.112083 98.254 98.254 1 1 0
0.112085 98.2459 98.2459 1 1 0
0.112087 98.2378 98.2378 1 1 0
0.11209 98.2296 98.2296 1 1 0
0.112092 98.2215 98.2215 1 1 0
0.112095 98.2134 98.2134 1 1 0
0.112097 98.2053 98.2053 1 1 0
0.1121 98.1972 98.1972 1 1 0
0.112102 98.1891 98.1891 1 1 0
0.112104 98.1809 98.1809 1 1 0
0.112107 98.1728 98.1728 1 1 0
0.112109 98.1647 98.1647 1 1 0
0.112112 98.1566 98.1566 1 1 0
0.112114 98.1485 98.1485 1 1 0
0.112117 98.1403 98.1403 1 1 0
0.112119 98.1322 98.1322 1 1 0
0.112122 98.1241 98.1241 1 1 0
0.112124 98.116 98.116 1 1 0
0.112126 98.1079 98.1079 1 1 0
0.112129 98.0998 98.0998 1 1 0
0.112131 98.0916 98.0916 1 1 0
0.112134 98.0835 98.0835 1 1 0
0.112136 98.0754 98.0754 1 1 0
0.112139 98.0673 98.0673 1 1 0
0.112141 98.0592 98.0592 1 1 0
0.112143 98.0511 98.0511 1 1 0
0.112146 98.0429 98.0429 1 1 0
0.112148 98.0348 98.0348 1 1 0
0.112151 98.0267 98.0267 1 1 0
0.112153 98.0186 98.0186 1 1 0
0.112156 98.0105 98.0105 1 1 0
0.112158 98.0023 98.0023 1 1 0
0.11216 97.9942 97.9942 1 1 0
0.112163 97.9861 97.9861 1 1 0
0.112165 97.978 97.978 1 1 0
0.112168 97.9699 97.9699 1 1 0
0.11217 97.9618 97.9618 1 1 0
0.112173 97.9536 97.9536 1 1 0
0.112175 97.9455 97.9455 1 1 0
0.112177 97.9374 97.9374 1 1 0
0.11218 97.9293 97.9293 1 1 0
0.112182 97.9212 97.9212 1 1 0
0.112185 97.9131 97.9131 1 1 0
0.112187 97.9049 97.9049 1 1 0
0.11219 97.8968 97.8968 1 1 0
0.112192 97.8887 97.8887 1 1 0
0.112195 97.8806 97.8806 1 1 0
0.112197 97.8725 97.8725 1 1 0
0.112199 97.8643 97.8643 1 1 0
0.112202 97.8562 97.8562 1 1 0
0.112204 97.8481 97.8481 1 1 0
0.112207 97.84 97.84 1 1 0
0.112209 97.8319 97.8319 1 1 0
0.112212 97.8238 97.8238 1 1 0
0.112214 97.8156 97.8156 1 1 0
0.112216 97.8075 97.8075 1 1 0
0.112219 97.7994 97.7994 1 1 0
0.112221 97.7913 97.7913 1 1 0
0.112224 97.7832 97.7832 1 1 0
0.112226 97.7751 97.7751 1 1 0
0.112229 97.7669 97.7669 1 1 0
0.112231 97.7588 97.7588 1 1 0
0.112234 97.7507 97.7507 1 1 0
0.112236 97.7426 97.7426 1 1 0
0.112238 97.7345 97.7345 1 1 0
0.112241 97.7264 97.7264 1 1 0
0.112243 97.7182 97.7182 1 1 0
0.112246 97.7101 97.7101 1 1 0
0.112248 97.702 97.702 1 1 0
0.112251 97.6939 97.6939 1 1 0
0.112253 97.6858 97.6858 1 1 0
0.112256 97.6776 97.6776 1 1 0
0.112258 97.6695 97.6695 1 1 0
0.11226 97.6614 97.6614 1 1 0
0.112263 97.6533 97.6533 1 1 0
0.112265 97.6452 97.6452 1 1 0
0.112268 97.6371 97.6371 1 1 0
0.11227 97.6289 97.6289 1 1 0
0.112273 97.6208 97.6208 1 1 0
0.112275 97.6127 97.6127 1 1 0
0.112277 97.6046 97.6046 1 1 0
0.11228 97.5965 97.5965 1 1 0
0.112282 97.5884 97.5884 1 1 0
0.112285 97.5802 97.5802 1 1 0
0.112287 97.5721 97.5721 1 1 0
0.11229 97.564 97.564 1 1 0
0.112292 97.5559 97.5559 1 1 0
0.112295 97.5478 97.5478 1 1 0
0.112297 97.5396 97.5396 1 1 0
0.112299 97.5315 97.5315 1 1 0
0.112302 97.5234 97.5234 1 1 0
0.112304 97.5153 97.5153 1 1 0
0.112307 97.5072 97.5072 1 1 0
0.112309 97.4991 97.4991 1 1 0
0.112312 97.4909 97.4909 1 1 0
0.112314 97.4828 97.4828 1 1 0
0.112317 97.4747 97.4747 1 1 0
0.112319 97.4666 97.4666 1 1 0
0.112321 97.4585 97.4585 1 1 0
0.112324 97.4504 97.4504 1 1 0
0.112326 97.4422 97.4422 1 1 0
0.112329 97.4341 97.4341 1 1 0
0.112331 97.426 97.426 1 1 0
0.112334 97.4179 97.4179 1 1 0
0.112336 97.4098 97.4098 1 1 0
0.112339 97.4017 97.4017 1 1 0
0.112341 97.3935 97.3935 1 1 0
0.112343 97.3854 97.3854 1 1 0
0.112346 97.3773 97.3773 1 1 0
0.112348 97.3692 97.3692 1 1 0
0.112351 97.3611 97.3611 1 1 0
0.112353 97.3529 97.3529 1 1 0
0.112356 97.3448 97.3448 1 1 0
0.112358 97.3367 97.3367 1 1 0
0.112361 97.3286 97.3286 1 1 0
0.112363 97.3205 97.3205 1 1 0
0.112365 97.3124 97.3124 1 1 0
0.112368 97.3042 97.3042 1 1 0
0.11237 97.2961 97.2961 1 1 0
0.112373 97.288 97.288 1 1 0
0.112375 97.2799 97.2799 1 1 0
0.112378 97.2718 97.2718 1 1 0
0.11238 97.2637 97.2637 1 1 0
0.112383 97.2555 97.2555 1 1 0
0.112385 97.2474 97.2474 1 1 0
0.112388 97.2393 97.2393 1 1 0
0.11239 97.2312 97.2312 1 1 0
0.112392 97.2231 97.2231 1 1 0
0.112395 97.2149 97.2149 1 1 0
0.112397 97.2068 97.2068 1 1 0
0.1124 97.1987 97.1987 1 1 0
0.112402 97.1906 97.1906 1 1 0
0.112405 97.1825 97.1825 1 1 0
0.112407 97.1744 97.1744 1 1 0
0.11241 97.1662 97.1662 1 1 0
0.112412 97.1581 97.1581 1 1 0
0.112414 97.15 97.15 1 1 0
0.112417 97.1419 97.1419 1 1 0
0.112419 97.1338 97.1338 1 1 0
0.112422 97.1257 97.1257 1 1 0
0.112424 97.1175 97.1175 1 1 0
0.112427 97.1094 97.1094 1 1 0
0.112429 97.1013 97.1013 1 1 0
0.112432 97.0932 97.0932 1 1 0
0.112434 97.0851 97.0851 1 1 0
0.112437 97.077 97.077 1 1 0
0.112439 97.0688 97.0688 1 1 0
0.112441 97.0607 97.0607 1 1 0
0.112444 97.0526 97.0526 1 1 0
0.112446 97.0445 97.0445 1 1 0
0.112449 97.0364 97.0364 1 1 0
0.112451 97.0282 97.0282 1 1 0
0.112454 97.0201 97.0201 1 1 0
0.112456 97.012 97.012 1 1 0
0.112459 97.0039 97.0039 1 1 0
0.112461 96.9958 96.9958 1 1 0
0.112463 96.9877 96.9877 1 1 0
0.112466 96.9795 96.9795 1 1 0
0.112468 96.9714 96.9714 1 1 0
0.112471 96.9633 96.9633 1 1 0
0.112473 96.9552 96.9552 1 1 0
0.112476 96.9471 96.9471 1 1 0
0.112478 96.939 96.939 1 1 0
0.112481 96.9308 96.9308 1 1 0
0.112483 96.9227 96.9227 1 1 0
0.112486 96.9146 96.9146 1 1 0
0.112488 96.9065 96.9065 1 1 0
0.11249 96.8984 96.8984 1 1 0
0.112493 96.8903 96.8903 1 1 0
0.112495 96.8821 96.8821 1 1 0
0.112498 96.874 96.874 1 1 0
0.1125 96.8659 96.8659 1 1 0
0.112503 96.8578 96.8578 1 1 0
0.112505 96.8497 96.8497 1 1 0
0.112508 96.8415 96.8415 1 1 0
0.11251 96.8334 96.8334 1 1 0
0.112513 96.8253 96.8253 1 1 0
0.112515 96.8172 96.8172 1 1 0
0.112517 96.8091 96.8091 1 1 0
0.11252 96.801 96.801 1 1 0
0.112522 96.7928 96.7928 1 1 0
0.112525 96.7847 96.7847 1 1 0
0.112527 96.7766 96.7766 1 1 0
0.11253 96.7685 96.7685 1 1 0
0.112532 96.7604 96.7604 1 1 0
0.112535 96.7523 96.7523 1 1 0
0.112537 96.7441 96.7441 1 1 0
0.11254 96.736 96.736 1 1 0
0.112542 96.7279 96.7279 1 1 0
0.112545 96.7198 96.7198 1 1 0
0.112547 96.7117 96.7117 1 1 0
0.112549 96.7035 96.7035 1 1 0
0.112552 96.6954 96.6954 1 1 0
0.112554 96.6873 96.6873 1 1 0
0.112557 96.6792 96.6792 1 1 0
0.112559 96.6711 96.6711 1 1 0
0.112562 96.663 96.663 1 1 0
0.112564 96.6548 96.6548 1 1 0
0.112567 96.6467 96.6467 1 1 0
0.112569 96.6386 96.6386 1 1 0
0.112572 96.6305 96.6305 1 1 0
0.112574 96.6224 96.6224 1 1 0
0.112576 96.6143 96.6143 1 1 0
0.112579 96.6061 96.6061 1 1 0
0.112581 96.598 96.598 1 1 0
0.112584 96.5899 96.5899 1 1 0
0.112586 96.5818 96.5818 1 1 0
0.112589 96.5737 96.5737 1 1 0
0.112591 96.5656 96.5656 1 1 0
0.112594 96.5574 96.5574 1 1 0
0.112596 96.5493 96.5493 1 1 0
0.112599 96.5412 96.5412 1 1 0
0.112601 96.5331 96.5331 1 1 0
0.112604 96.525 96.525 1 1 0
0.112606 96.5168 96.5168 1 1 0
0.112608 96.5087 96.5087 1 1 0
0.112611 96.5006 96.5006 1 1 0
0.112613 96.4925 96.4925 1 1 0
0.112616 96.4844 96.4844 1 1 0
0.112618 96.4763 96.4763 1 1 0
0.112621 96.4681 96.4681 1 1 0
0.112623 96.46 96.46 1 1 0
0.112626 96.4519 96.4519 1 1 0
0.112628 96.4438 96.4438 1 1 0
0.112631 96.4357 96.4357 1 1 0
0.112633 96.4276 96.4276 1 1 0
0.112636 96.4194 96.4194 1 1 0
0.112638 96.4113 96.4113 1 1 0
0.11264 96.4032 96.4032 1 1 0
0.112643 96.3951 96.3951 1 1 0
0.112645 96.387 96.387 1 1 0
0.112648 96.3788 96.3788 1 1 0
0.11265 96.3707 96.3707 1 1 0
0.112653 96.3626 96.3626 1 1 0
0.112655 96.3545 96.3545 1 1 0
0.112658 96.3464 96.3464 1 1 0
0.11266 96.3383 96.3383 1 1 0
0.112663 96.3301 96.3301 1 1 0
0.112665 96.322 96.322 1 1 0
0.112668 96.3139 96.3139 1 1 0
0.11267 96.3058 96.3058 1 1 0
0.112673 96.2977 96.2977 1 1 0
0.112675 96.2896 96.2896 1 1 0
0.112677 96.2814 96.2814 1 1 0
0.11268 96.2733 96.2733 1 1 0
0.112682 96.2652 96.2652 1 1 0
0.112685 96.2571 96.2571 1 1 0
0.112687 96.249 96.249 1 1 0
0.11269 96.2409 96.2409 1 1 0
0.112692 96.2327 96.2327 1 1 0
0.112695 96.2246 96.2246 1 1 0
0.112697 96.2165 96.2165 1 1 0
0.1127 96.2084 96.2084 1 1 0
0.112702 96.2003 96.2003 1 1 0
0.112705 96.1921 96.1921 1 1 0
0.112707 96.184 96.184 1 1 0
0.112709 96.1759 96.1759 1 1 0
0.112712 96.1678 96.1678 1 1 0
0.112714 96.1597 96.1597 1 1 0
0.112717 96.1516 96.1516 1 1 0
0.112719 96.1434 96.1434 1 1 0
0.112722 96.1353 96.1353 1 1 0
0.112724 96.1272 96.1272 1 1 0
0.112727 96.1191 96.1191 1 1 0
0.112729 96.111 96.111 1 1 0
0.112732 96.1029 96.1029 1 1 0
0.112734 96.0947 96.0947 1 1 0
0.112737 96.0866 96.0866 1 1 0
0.112739 96.0785 96.0785 1 1 0
0.112742 96.0704 96.0704 1 1 0
0.112744 96.0623 96.0623 1 1 0
0.112747 96.0541 96.0541 1 1 0
0.112749 96.046 96.046 1 1 0
0.112751 96.0379 96.0379 1 1 0
0.112754 96.0298 96.0298 1 1 0
0.112756 96.0217 96.0217 1 1 0
0.112759 96.0136 96.0136 1 1 0
0.112761 96.0054 96.0054 1 1 0
0.112764 95.9973 95.9973 1 1 0
0.112766 95.9892 95.9892 1 1 0
0.112769 95.9811 95.9811 1 1 0
0.112771 95.973 95.973 1 1 0
0.112774 95.9649 95.9649 1 1 0
0.112776 95.9567 95.9567 1 1 0
0.112779 95.9486 95.9486 1 1 0
0.112781 95.9405 95.9405 1 1 0
0.112784 95.9324 95.9324 1 1 0
0.112786 95.9243 95.9243 1 1 0
0.112789 95.9162 95.9162 1 1 0
0.112791 95.908 95.908 1 1 0
0.112793 95.8999 95.8999 1 1 0
0.112796 95.8918 95.8918 1 1 0
0.112798 95.8837 95.8837 1 1 0
0.112801 95.8756 95.8756 1 1 0
0.112803 95.8674 95.8674 1 1 0
0.112806 95.8593 95.8593 1 1 0
0.112808 95.8512 95.8512 1 1 0
0.112811 95.8431 95.8431 1 1 0
0.112813 95.835 95.835 1 1 0
0.112816 95.8269 95.8269 1 1 0
0.112818 95.8187 95.8187 1 1 0
0.112821 95.8106 95.8106 1 1 0
0.112823 95.8025 95.8025 1 1 0
0.112826 95.7944 95.7944 1 1 0
0.112828 95.7863 95.7863 1 1 0
0.112831 95.7782 95.7782 1 1 0
0.112833 95.77 95.77 1 1 0
0.112836 95.7619 95.7619 1 1 0
0.112838 95.7538 95.7538 1 1 0
0.11284 95.7457 95.7457 1 1 0
0.112843 95.7376 95.7376 1 1 0
0.112845 95.7295 95.7295 1 1 0
0.112848 95.7213 95.7213 1 1 0
0.11285 95.7132 95.7132 1 1 0
0.112853 95.7051 95.7051 1 1 0
0.112855 95.697 95.697 1 1 0
0.112858 95.6889 95.6889 1 1 0
0.11286 95.6807 95.6807 1 1 0
0.112863 95.6726 95.6726 1 1 0
0.112865 95.6645 95.6645 1 1 0
0.112868 95.6564 95.6564 1 1 0
0.11287 95.6483 95.6483 1 1 0
0.112873 95.6402 95.6402 1 1 0
0.112875 95.632 95.632 1 1 0
0.112878 95.6239 95.6239 1 1 0
0.11288 95.6158 95.6158 1 1 0
0.112883 95.6077 95.6077 1 1 0
0.112885 95.5996 95.5996 1 1 0
0.112888 95.5915 95.5915 1 1 0
0.11289 95.5833 95.5833 1 1 0
0.112892 95.5752 95.5752 1 1 0
0.112895 95.5671 95.5671 1 1 0
0.112897 95.559 95.559 1 1 0
0.1129 95.5509 95.5509 1 1 0
0.112902 95.5427 95.5427 1 1 0
0.112905 95.5346 95.5346 1 1 0
0.112907 95.5265 95.5265 1 1 0
0.11291 95.5184 95.5184 1 1 0
0.112912 95.5103 95.5103 1 1 0
0.112915 95.5022 95.5022 1 1 0
0.112917 95.494 95.494 1 1 0
0.11292 95.4859 95.4859 1 1 0
0.112922 95.4778 95.4778 1 1 0
0.112925 95.4697 95.4697 1 1 0
0.112927 95.4616 95.4616 1 1 0
0.11293 95.4535 95.4535 1 1 0
0.112932 95.4453 95.4453 1 1 0
0.112935 95.4372 95.4372 1 1 0
0.112937 95.4291 95.4291 1 1 0
0.11294 95.421 95.421 1 1 0
0.112942 95.4129 95.4129 1 1 0
0.112945 95.4048 95.4048 1 1 0
0.112947 95.3966 95.3966 1 1 0
0.11295 95.3885 95.3885 1 1 0
0.112952 95.3804 95.3804 1 1 0
0.112954 95.3723 95.3723 1 1 0
0.112957 95.3642 95.3642 1 1 0
0.112959 95.356 95.356 1 1 0
0.112962 95.3479 95.3479 1 1 0
0.112964 95.3398 95.3398 1 1 0
0.112967 95.3317 95.3317 1 1 0
0.112969 95.3236 95.3236 1 1 0
0.112972 95.3155 95.3155 1 1 0
0.112974 95.3073 95.3073 1 1 0
0.112977 95.2992 95.2992 1 1 0
0.112979 95.2911 95.2911 1 1 0
0.112982 95.283 95.283 1 1 0
0.112984 95.2749 95.2749 1 1 0
0.112987 95.2668 95.2668 1 1 0
0.112989 95.2586 95.2586 1 1 0
0.112992 95.2505 95.2505 1 1 0
0.112994 95.2424 95.2424 1 1 0
0.112997 95.2343 95.2343 1 1 0
0.112999 95.2262 95.2262 1 1 0
0.113002 95.2181 95.2181 1 1 0
0.113004 95.2099 95.2099 1 1 0
0.113007 95.2018 95.2018 1 1 0
0.113009 95.1937 95.1937 1 1 0
0.113012 95.1856 95.1856 1 1 0
0.113014 95.1775 95.1775 1 1 0
0.113017 95.1693 95.1693 1 1 0
0.113019 95.1612 95.1612 1 1 0
0.113022 95.1531 95.1531 1 1 0
0.113024 95.145 95.145 1 1 0
0.113027 95.1369 95.1369 1 1 0
0.113029 95.1288 95.1288 1 1 0
0.113032 95.1206 95.1206 1 1 0
0.113034 95.1125 95.1125 1 1 0
0.113036 95.1044 95.1044 1 1 0
0.113039 95.0963 95.0963 1 1 0
0.113041 95.0882 95.0882 1 1 0
0.113044 95.0801 95.0801 1 1 0
0.113046 95.0719 95.0719 1 1 0
0.113049 95.0638 95.0638 1 1 0
0.113051 95.0557 95.0557 1 1 0
0.113054 95.0476 95.0476 1 1 0
0.113056 95.0395 95.0395 1 1 0
0.113059 95.0313 95.0313 1 1 0
0.113061 95.0232 95.0232 1 1 0
0.113064 95.0151 95.0151 1 1 0
0.113066 95.007 95.007 1 1 0
0.113069 94.9989 94.9989 1 1 0
0.113071 94.9908 94.9908 1 1 0
0.113074 94.9826 94.9826 1 1 0
0.113076 94.9745 94.9745 1 1 0
0.113079 94.9664 94.9664 1 1 0
0.113081 94.9583 94.9583 1 1 0
0.113084 94.9502 94.9502 1 1 0
0.113086 94.9421 94.9421 1 1 0
0.113089 94.9339 94.9339 1 1 0
0.113091 94.9258 94.9258 1 1 0
0.113094 94.9177 94.9177 1 1 0
0.113096 94.9096 94.9096 1 1 0
0.113099 94.9015 94.9015 1 1 0
0.113101 94.8934 94.8934 1 1 0
0.113104 94.8852 94.8852 1 1 0
0.113106 94.8771 94.8771 1 1 0
0.113109 94.869 94.869 1 1 0
0.113111 94.8609 94.8609 1 1 0
0.113114 94.8528 94.8528 1 1 0
0.113116 94.8446 94.8446 1 1 0
0.113119 94.8365 94.8365 1 1 0
0.113121 94.8284 94.8284 1 1 0
0.113124 94.8203 94.8203 1 1 0
0.113126 94.8122 94.8122 1 1 0
0.113129 94.8041 94.8041 1 1 0
0.113131 94.7959 94.7959 1 1 0
0.113134 94.7878 94.7878 1 1 0
0.113136 94.7797 94.7797 1 1 0
0.113139 94.7716 94.7716 1 1 0
0.113141 94.7635 94.7635 1 1 0
0.113144 94.7554 94.7554 1 1 0
0.113146 94.7472 94.7472 1 1 0
0.113149 94.7391 94.7391 1 1 0
0.113151 94.731 94.731 1 1 0
0.113154 94.7229 94.7229 1 1 0
0.113156 94.7148 94.7148 1 1 0
0.113159 94.7067 94.7067 1 1 0
0.113161 94.6985 94.6985 1 1 0
0.113164 94.6904 94.6904 1 1 0
0.113166 94.6823 94.6823 1 1 0
0.113169 94.6742 94.6742 1 1 0
0.113171 94.6661 94.6661 1 1 0
0.113174 94.6579 94.6579 1 1 0
0.113176 94.6498 94.6498 1 1 0
0.113178 94.6417 94.6417 1 1 0
0.113181 94.6336 94.6336 1 1 0
0.113183 94.6255 94.6255 1 1 0
0.113186 94.6174 94.6174 1 1 0
0.113188 94.6092 94.6092 1 1 0
0.113191 94.6011 94.6011 1 1 0
0.113193 94.593 94.593 1 1 0
0.113196 94.5849 94.5849 1 1 0
0.113198 94.5768 94.5768 1 1 0
0.113201 94.5687 94.5687 1 1 0
0.113203 94.5605 94.5605 1 1 0
0.113206 94.5524 94.5524 1 1 0
0.113208 94.5443 94.5443 1 1 0
0.113211 94.5362 94.5362 1 1 0
0.113213 94.5281 94.5281 1 1 0
0.113216 94.5199 94.5199 1 1 0
0.113218 94.5118 94.5118 1 1 0
0.113221 94.5037 94.5037 1 1 0
0.113223 94.4956 94.4956 1 1 0
0.113226 94.4875 94.4875 1 1 0
0.113228 94.4794 94.4794 1 1 0
0.113231 94.4712 94.4712 1 1 0
0.113233 94.4631 94.4631 1 1 0
0.113236 94.455 94.455 1 1 0
0.113238 94.4469 94.4469 1 1 0
0.113241 94.4388 94.4388 1 1 0
0.113243 94.4307 94.4307 1 1 0
0.113246 94.4225 94.4225 1 1 0
0.113248 94.4144 94.4144 1 1 0
0.113251 94.4063 94.4063 1 1 0
0.113253 94.3982 94.3982 1 1 0
0.113256 94.3901 94.3901 1 1 0
0.113258 94.382 94.382 1 1 0
0.113261 94.3738 94.3738 1 1 0
0.113263 94.3657 94.3657 1 1 0
0.113266 94.3576 94.3576 1 1 0
0.113268 94.3495 94.3495 1 1 0
0.113271 94.3414 94.3414 1 1 0
0.113273 94.3332 94.3332 1 1 0
0.113276 94.3251 94.3251 1 1 0
0.113278 94.317 94.317 1 1 0
0.113281 94.3089 94.3089 1 1 0
0.113283 94.3008 94.3008 1 1 0
0.113286 94.2927 94.2927 1 1 0
0.113288 94.2845 94.2845 1 1 0
0.113291 94.2764 94.2764 1 1 0
0.113293 94.2683 94.2683 1 1 0
0.113296 94.2602 94.2602 1 1 0
0.113298 94.2521 94.2521 1 1 0
0.113301 94.244 94.244 1 1 0
0.113303 94.2358 94.2358 1 1 0
0.113306 94.2277 94.2277 1 1 0
0.113308 94.2196 94.2196 1 1 0
0.113311 94.2115 94.2115 1 1 0
0.113313 94.2034 94.2034 1 1 0
0.113316 94.1953 94.1953 1 1 0
0.113318 94.1871 94.1871 1 1 0
0.113321 94.179 94.179 1 1 0
0.113323 94.1709 94.1709 1 1 0
0.113326 94.1628 94.1628 1 1 0
0.113329 94.1547 94.1547 1 1 0
0.113331 94.1465 94.1465 1 1 0
0.113334 94.1384 94.1384 1 1 0
0.113336 94.1303 94.1303 1 1 0
0.113339 94.1222 94.1222 1 1 0
0.113341 94.1141 94.1141 1 1 0
0.113344 94.106 94.106 1 1 0
0.113346 94.0978 94.0978 1 1 0
0.113349 94.0897 94.0897 1 1 0
0.113351 94.0816 94.0816 1 1 0
0.113354 94.0735 94.0735 1 1 0
0.113356 94.0654 94.0654 1 1 0
0.113359 94.0573 94.0573 1 1 0
0.113361 94.0491 94.0491 1 1 0
0.113364 94.041 94.041 1 1 0
0.113366 94.0329 94.0329 1 1 0
0.113369 94.0248 94.0248 1 1 0
0.113371 94.0167 94.0167 1 1 0
0.113374 94.0086 94.0086 1 1 0
0.113376 94.0004 94.0004 1 1 0
0.113379 93.9923 93.9923 1 1 0
0.113381 93.9842 93.9842 1 1 0
0.113384 93.9761 93.9761 1 1 0
0.113386 93.968 93.968 1 1 0
0.113389 93.9598 93.9598 1 1 0
0.113391 93.9517 93.9517 1 1 0
0.113394 93.9436 93.9436 1 1 0
0.113396 93.9355 93.9355 1 1 0
0.113399 93.9274 93.9274 1 1 0
0.113401 93.9193 93.9193 1 1 0
0.113404 93.9111 93.9111 1 1 0
0.113406 93.903 93.903 1 1 0
0.113409 93.8949 93.8949 1 1 0
0.113411 93.8868 93.8868 1 1 0
0.113414 93.8787 93.8787 1 1 0
0.113416 93.8706 93.8706 1 1 0
0.113419 93.8624 93.8624 1 1 0
0.113421 93.8543 93.8543 1 1 0
0.113424 93.8462 93.8462 1 1 0
0.113426 93.8381 93.8381 1 1 0
0.113429 93.83 93.83 1 1 0
0.113431 93.8218 93.8218 1 1 0
0.113434 93.8137 93.8137 1 1 0
0.113436 93.8056 93.8056 1 1 0
0.113439 93.7975 93.7975 1 1 0
0.113441 93.7894 93.7894 1 1 0
0.113444 93.7813 93.7813 1 1 0
0.113446 93.7731 93.7731 1 1 0
0.113449 93.765 93.765 1 1 0
0.113451 93.7569 93.7569 1 1 0
0.113454 93.7488 93.7488 1 1 0
0.113456 93.7407 93.7407 1 1 0
0.113459 93.7326 93.7326 1 1 0
0.113461 93.7244 93.7244 1 1 0
0.113464 93.7163 93.7163 1 1 0
0.113467 93.7082 93.7082 1 1 0
0.113469 93.7001 93.7001 1 1 0
0.113472 93.692 93.692 1 1 0
0.113474 93.6839 93.6839 1 1 0
0.113477 93.6757 93.6757 1 1 0
0.113479 93.6676 93.6676 1 1 0
0.113482 93.6595 93.6595 1 1 0
0.113484 93.6514 93.6514 1 1 0
0.113487 93.6433 93.6433 1 1 0
0.113489 93.6351 93.6351 1 1 0
0.113492 93.627 93.627 1 1 0
0.113494 93.6189 93.6189 1 1 0
0.113497 93.6108 93.6108 1 1 0
0.113499 93.6027 93.6027 1 1 0
0.113502 93.5946 93.5946 1 1 0
0.113504 93.5864 93.5864 1 1 0
0.113507 93.5783 93.5783 1 1 0
0.113509 93.5702 93.5702 1 1 0
0.113512 93.5621 93.5621 1 1 0
0.113514 93.554 93.554 1 1 0
0.113517 93.5459 93.5459 1 1 0
0.113519 93.5377 93.5377 1 1 0
0.113522 93.5296 93.5296 1 1 0
0.113524 93.5215 93.5215 1 1 0
0.113527 93.5134 93.5134 1 1 0
0.113529 93.5053 93.5053 1 1 0
0.113532 93.4972 93.4972 1 1 0
0.113534 93.489 93.489 1 1 0
0.113537 93.4809 93.4809 1 1 0
0.113539 93.4728 93.4728 1 1 0
0.113542 93.4647 93.4647 1 1 0
0.113544 93.4566 93.4566 1 1 0
0.113547 93.4484 93.4484 1 1 0
0.11355 93.4403 93.4403 1 1 0
0.113552 93.4322 93.4322 1 1 0
0.113555 93.4241 93.4241 1 1 0
0.113557 93.416 93.416 1 1 0
0.11356 93.4079 93.4079 1 1 0
0.113562 93.3997 93.3997 1 1 0
0.113565 93.3916 93.3916 1 1 0
0.113567 93.3835 93.3835 1 1 0
0.11357 93.3754 93.3754 1 1 0
0.113572 93.3673 93.3673 1 1 0
0.113575 93.3592 93.3592 1 1 0
0.113577 93.351 93.351 1 1 0
0.11358 93.3429 93.3429 1 1 0
0.113582 93.3348 93.3348 1 1 0
0.113585 93.3267 93.3267 1 1 0
0.113587 93.3186 93.3186 1 1 0
0.11359 93.3105 93.3105 1 1 0
0.113592 93.3023 93.3023 1 1 0
0.113595 93.2942 93.2942 1 1 0
0.113597 93.2861 93.2861 1 1 0
0.1136 93.278 93.278 1 1 0
0.113602 93.2699 93.2699 1 1 0
0.113605 93.2617 93.2617 1 1 0
0.113607 93.2536 93.2536 1 1 0
0.11361 93.2455 93.2455 1 1 0
0.113613 93.2374 93.2374 1 1 0
0.113615 93.2293 93.2293 1 1 0
0.113618 93.2212 93.2212 1 1 0
0.11362 93.213 93.213 1 1 0
0.113623 93.2049 93.2049 1 1 0
0.113625 93.1968 93.1968 1 1 0
0.113628 93.1887 93.1887 1 1 0
0.11363 93.1806 93.1806 1 1 0
0.113633 93.1725 93.1725 1 1 0
0.113635 93.1643 93.1643 1 1 0
0.113638 93.1562 93.1562 1 1 0
0.11364 93.1481 93.1481 1 1 0
0.113643 93.14 93.14 1 1 0
0.113645 93.1319 93.1319 1 1 0
0.113648 93.1238 93.1238 1 1 0
0.11365 93.1156 93.1156 1 1 0
0.113653 93.1075 93.1075 1 1 0
0.113655 93.0994 93.0994 1 1 0
0.113658 93.0913 93.0913 1 1 0
0.11366 93.0832 93.0832 1 1 0
0.113663 93.075 93.075 1 1 0
0.113666 93.0669 93.0669 1 1 0
0.113668 93.0588 93.0588 1 1 0
0.113671 93.0507 93.0507 1 1 0
0.113673 93.0426 93.0426 1 1 0
0.113676 93.0345 93.0345 1 1 0
0.113678 93.0263 93.0263 1 1 0
0.113681 93.0182 93.0182 1 1 0
0.113683 93.0101 93.0101 1 1 0
0.113686 93.002 93.002 1 1 0
0.113688 92.9939 92.9939 1 1 0
0.113691 92.9858 92.9858 1 1 0
0.113693 92.9776 92.9776 1 1 0
0.113696 92.9695 92.9695 1 1 0
0.113698 92.9614 92.9614 1 1 0
0.113701 92.9533 92.9533 1 1 0
0.113703 92.9452 92.9452 1 1 0
0.113706 92.937 92.937 1 1 0
0.113708 92.9289 92.9289 1 1 0
0.113711 92.9208 92.9208 1 1 0
0.113714 92.9127 92.9127 1 1 0
0.113716 92.9046 92.9046 1 1 0
0.113719 92.8965 92.8965 1 1 0
0.113721 92.8883 92.8883 1 1 0
0.113724 92.8802 92.8802 1 1 0
0.113726 92.8721 92.8721 1 1 0
0.113729 92.864 92.864 1 1 0
0.113731 92.8559 92.8559 1 1 0
0.113734 92.8478 92.8478 1 1 0
0.113736 92.8396 92.8396 1 1 0
0.113739 92.8315 92.8315 1 1 0
0.113741 92.8234 92.8234 1 1 0
0.113744 92.8153 92.8153 1 1 0
0.113746 92.8072 92.8072 1 1 0
0.113749 92.7991 92.7991 1 1 0
0.113752 92.7909 92.7909 1 1 0
0.113754 92.7828 92.7828 1 1 0
0.113757 92.7747 92.7747 1 1 0
0.113759 92.7666 92.7666 1 1 0
0.113762 92.7585 92.7585 1 1 0
0.113764 92.7503 92.7503 1 1 0
0.113767 92.7422 92.7422 1 1 0
0.113769 92.7341 92.7341 1 1 0
0.113772 92.726 92.726 1 1 0
0.113774 92.7179 92.7179 1 1 0
0.113777 92.7098 92.7098 1 1 0
0.113779 92.7016 92.7016 1 1 0
0.113782 92.6935 92.6935 1 1 0
0.113784 92.6854 92.6854 1 1 0
0.113787 92.6773 92.6773 1 1 0
0.113789 92.6692 92.6692 1 1 0
0.113792 92.6611 92.6611 1 1 0
0.113795 92.6529 92.6529 1 1 0
0.113797 92.6448 92.6448 1 1 0
0.1138 92.6367 92.6367 1 1 0
0.113802 92.6286 92.6286 1 1 0
0.113805 92.6205 92.6205 1 1 0
0.113807 92.6124 92.6124 1 1 0
0.11381 92.6042 92.6042 1 1 0
0.113812 92.5961 92.5961 1 1 0
0.113815 92.588 92.588 1 1 0
0.113817 92.5799 92.5799 1 1 0
0.11382 92.5718 92.5718 1 1 0
0.113822 92.5636 92.5636 1 1 0
0.113825 92.5555 92.5555 1 1 0
0.113828 92.5474 92.5474 1 1 0
0.11383 92.5393 92.5393 1 1 0
0.113833 92.5312 92.5312 1 1 0
0.113835 92.5231 92.5231 1 1 0
0.113838 92.5149 92.5149 1 1 0
0.11384 92.5068 92.5068 1 1 0
0.113843 92.4987 92.4987 1 1 0
0.113845 92.4906 92.4906 1 1 0
0.113848 92.4825 92.4825 1 1 0
0.11385 92.4744 92.4744 1 1 0
0.113853 92.4662 92.4662 1 1 0
0.113855 92.4581 92.4581 1 1 0
0.113858 92.45 92.45 1 1 0
0.11386 92.4419 92.4419 1 1 0
0.113863 92.4338 92.4338 1 1 0
0.113866 92.4257 92.4257 1 1 0
0.113868 92.4175 92.4175 1 1 0
0.113871 92.4094 92.4094 1 1 0
0.113873 92.4013 92.4013 1 1 0
0.113876 92.3932 92.3932 1 1 0
0.113878 92.3851 92.3851 1 1 0
0.113881 92.3769 92.3769 1 1 0
0.113883 92.3688 92.3688 1 1 0
0.113886 92.3607 92.3607 1 1 0
0.113888 92.3526 92.3526 1 1 0
0.113891 92.3445 92.3445 1 1 0
0.113893 92.3364 92.3364 1 1 0
0.113896 92.3282 92.3282 1 1 0
0.113899 92.3201 92.3201 1 1 0
0.113901 92.312 92.312 1 1 0
0.113904 92.3039 92.3039 1 1 0
0.113906 92.2958 92.2958 1 1 0
0.113909 92.2877 92.2877 1 1 0
0.113911 92.2795 92.2795 1 1 0
0.113914 92.2714 92.2714 1 1 0
0.113916 92.2633 92.2633 1 1 0
0.113919 92.2552 92.2552 1 1 0
0.113921 92.2471 92.2471 1 1 0
0.113924 92.239 92.239 1 1 0
0.113927 92.2308 92.2308 1 1 0
0.113929 92.2227 92.2227 1 1 0
0.113932 92.2146 92.2146 1 1 0
0.113934 92.2065 92.2065 1 1 0
0.113937 92.1984 92.1984 1 1 0
0.113939 92.1902 92.1902 1 1 0
0.113942 92.1821 92.1821 1 1 0
0.113944 92.174 92.174 1 1 0
0.113947 92.1659 92.1659 1 1 0
0.113949 92.1578 92.1578 1 1 0
0.113952 92.1497 92.1497 1 1 0
0.113954 92.1415 92.1415 1 1 0
0.113957 92.1334 92.1334 1 1 0
0.11396 92.1253 92.1253 1 1 0
0.113962 92.1172 92.1172 1 1 0
0.113965 92.1091 92.1091 1 1 0
0.113967 92.101 92.101 1 1 0
0.11397 92.0928 92.0928 1 1 0
0.113972 92.0847 92.0847 1 1 0
0.113975 92.0766 92.0766 1 1 0
0.113977 92.0685 92.0685 1 1 0
0.11398 92.0604 92.0604 1 1 0
0.113982 92.0523 92.0523 1 1 0
0.113985 92.0441 92.0441 1 1 0
0.113988 92.036 92.036 1 1 0
0.11399 92.0279 92.0279 1 1 0
0.113993 92.0198 92.0198 1 1 0
0.113995 92.0117 92.0117 1 1 0
0.113998 92.0035 92.0035 1 1 0
0.114 91.9954 91.9954 1 1 0
0.114003 91.9873 91.9873 1 1 0
0.114005 91.9792 91.9792 1 1 0
0.114008 91.9711 91.9711 1 1 0
0.11401 91.963 91.963 1 1 0
0.114013 91.9548 91.9548 1 1 0
0.114016 91.9467 91.9467 1 1 0
0.114018 91.9386 91.9386 1 1 0
0.114021 91.9305 91.9305 1 1 0
0.114023 91.9224 91.9224 1 1 0
0.114026 91.9143 91.9143 1 1 0
0.114028 91.9061 91.9061 1 1 0
0.114031 91.898 91.898 1 1 0
0.114033 91.8899 91.8899 1 1 0
0.114036 91.8818 91.8818 1 1 0
0.114039 91.8737 91.8737 1 1 0
0.114041 91.8656 91.8656 1 1 0
0.114044 91.8574 91.8574 1 1 0
0.114046 91.8493 91.8493 1 1 0
0.114049 91.8412 91.8412 1 1 0
0.114051 91.8331 91.8331 1 1 0
0.114054 91.825 91.825 1 1 0
0.114056 91.8168 91.8168 1 1 0
0.114059 91.8087 91.8087 1 1 0
0.114061 91.8006 91.8006 1 1 0
0.114064 91.7925 91.7925 1 1 0
0.114067 91.7844 91.7844 1 1 0
0.114069 91.7763 91.7763 1 1 0
0.114072 91.7681 91.7681 1 1 0
0.114074 91.76 91.76 1 1 0
0.114077 91.7519 91.7519 1 1 0
0.114079 91.7438 91.7438 1 1 0
0.114082 91.7357 91.7357 1 1 0
0.114084 91.7276 91.7276 1 1 0
0.114087 91.7194 91.7194 1 1 0
0.11409 91.7113 91.7113 1 1 0
0.114092 91.7032 91.7032 1 1 0
0.114095 91.6951 91.6951 1 1 0
0.114097 91.687 91.687 1 1 0
0.1141 91.6789 91.6789 1 1 0
0.114102 91.6707 91.6707 1 1 0
0.114105 91.6626 91.6626 1 1 0
0.114107 91.6545 91.6545 1 1 0
0.11411 91.6464 91.6464 1 1 0
0.114112 91.6383 91.6383 1 1 0
0.114115 91.6301 91.6301 1 1 0
0.114118 91.622 91.622 1 1 0
0.11412 91.6139 91.6139 1 1 0
0.114123 91.6058 91.6058 1 1 0
0.114125 91.5977 91.5977 1 1 0
0.114128 91.5896 91.5896 1 1 0
0.11413 91.5814 91.5814 1 1 0
0.114133 91.5733 91.5733 1 1 0
0.114135 91.5652 91.5652 1 1 0
0.114138 91.5571 91.5571 1 1 0
0.114141 91.549 91.549 1 1 0
0.114143 91.5409 91.5409 1 1 0
0.114146 91.5327 91.5327 1 1 0
0.114148 91.5246 91.5246 1 1 0
0.114151 91.5165 91.5165 1 1 0
0.114153 91.5084 91.5084 1 1 0
0.114156 91.5003 91.5003 1 1 0
0.114158 91.4922 91.4922 1 1 0
0.114161 91.484 91.484 1 1 0
0.114164 91.4759 91.4759 1 1 0
0.114166 91.4678 91.4678 1 1 0
0.114169 91.4597 91.4597 1 1 0
0.114171 91.4516 91.4516 1 1 0
0.114174 91.4434 91.4434 1 1 0
0.114176 91.4353 91.4353 1 1 0
0.114179 91.4272 91.4272 1 1 0
0.114182 91.4191 91.4191 1 1 0
0.114184 91.411 91.411 1 1 0
0.114187 91.4029 91.4029 1 1 0
0.114189 91.3947 91.3947 1 1 0
0.114192 91.3866 91.3866 1 1 0
0.114194 91.3785 91.3785 1 1 0
0.114197 91.3704 91.3704 1 1 0
0.114199 91.3623 91.3623 1 1 0
0.114202 91.3542 91.3542 1 1 0
0.114205 91.346 91.346 1 1 0
0.114207 91.3379 91.3379 1 1 0
0.11421 91.3298 91.3298 1 1 0
0.114212 91.3217 91.3217 1 1 0
0.114215 91.3136 91.3136 1 1 0
0.114217 91.3055 91.3055 1 1 0
0.11422 91.2973 91.2973 1 1 0
0.114222 91.2892 91.2892 1 1 0
0.114225 91.2811 91.2811 1 1 0
0.114228 91.273 91.273 1 1 0
0.11423 91.2649 91.2649 1 1 0
0.114233 91.2567 91.2567 1 1 0
0.114235 91.2486 91.2486 1 1 0
0.114238 91.2405 91.2405 1 1 0
0.11424 91.2324 91.2324 1 1 0
0.114243 91.2243 91.2243 1 1 0
0.114246 91.2162 91.2162 1 1 0
0.114248 91.208 91.208 1 1 0
0.114251 91.1999 91.1999 1 1 0
0.114253 91.1918 91.1918 1 1 0
0.114256 91.1837 91.1837 1 1 0
0.114258 91.1756 91.1756 1 1 0
0.114261 91.1675 91.1675 1 1 0
0.114263 91.1593 91.1593 1 1 0
0.114266 91.1512 91.1512 1 1 0
0.114269 91.1431 91.1431 1 1 0
0.114271 91.135 91.135 1 1 0
0.114274 91.1269 91.1269 1 1 0
0.114276 91.1188 91.1188 1 1 0
0.114279 91.1106 91.1106 1 1 0
0.114281 91.1025 91.1025 1 1 0
0.114284 91.0944 91.0944 1 1 0
0.114287 91.0863 91.0863 1 1 0
0.114289 91.0782 91.0782 1 1 0
0.114292 91.07 91.07 1 1 0
0.114294 91.0619 91.0619 1 1 0
0.114297 91.0538 91.0538 1 1 0
0.114299 91.0457 91.0457 1 1 0
0.114302 91.0376 91.0376 1 1 0
0.114304 91.0295 91.0295 1 1 0
0.114307 91.0213 91.0213 1 1 0
0.11431 91.0132 91.0132 1 1 0
0.114312 91.0051 91.0051 1 1 0
0.114315 90.997 90.997 1 1 0
0.114317 90.9889 90.9889 1 1 0
0.11432 90.9808 90.9808 1 1 0
0.114322 90.9726 90.9726 1 1 0
0.114325 90.9645 90.9645 1 1 0
0.114328 90.9564 90.9564 1 1 0
0.11433 90.9483 90.9483 1 1 0
0.114333 90.9402 90.9402 1 1 0
0.114335 90.9321 90.9321 1 1 0
0.114338 90.9239 90.9239 1 1 0
0.11434 90.9158 90.9158 1 1 0
0.114343 90.9077 90.9077 1 1 0
0.114346 90.8996 90.8996 1 1 0
0.114348 90.8915 90.8915 1 1 0
0.114351 90.8833 90.8833 1 1 0
0.114353 90.8752 90.8752 1 1 0
0.114356 90.8671 90.8671 1 1 0
0.114358 90.859 90.859 1 1 0
0.114361 90.8509 90.8509 1 1 0
0.114364 90.8428 90.8428 1 1 0
0.114366 90.8346 90.8346 1 1 0
0.114369 90.8265 90.8265 1 1 0
0.114371 90.8184 90.8184 1 1 0
0.114374 90.8103 90.8103 1 1 0
0.114376 90.8022 90.8022 1 1 0
0.114379 90.7941 90.7941 1 1 0
0.114382 90.7859 90.7859 1 1 0
0.114384 90.7778 90.7778 1 1 0
0.114387 90.7697 90.7697 1 1 0
0.114389 90.7616 90.7616 1 1 0
0.114392 90.7535 90.7535 1 1 0
0.114394 90.7454 90.7454 1 1 0
0.114397 90.7372 90.7372 1 1 0
0.1144 90.7291 90.7291 1 1 0
0.114402 90.721 90.721 1 1 0
0.114405 90.7129 90.7129 1 1 0
0.114407 90.7048 90.7048 1 1 0
0.11441 90.6966 90.6966 1 1 0
0.114412 90.6885 90.6885 1 1 0
0.114415 90.6804 90.6804 1 1 0
0.114418 90.6723 90.6723 1 1 0
0.11442 90.6642 90.6642 1 1 0
0.114423 90.6561 90.6561 1 1 0
0.114425 90.6479 90.6479 1 1 0
0.114428 90.6398 90.6398 1 1 0
0.11443 90.6317 90.6317 1 1 0
0.114433 90.6236 90.6236 1 1 0
0.114436 90.6155 90.6155 1 1 0
0.114438 90.6074 90.6074 1 1 0
0.114441 90.5992 90.5992 1 1 0
0.114443 90.5911 90.5911 1 1 0
0.114446 90.583 90.583 1 1 0
0.114448 90.5749 90.5749 1 1 0
0.114451 90.5668 90.5668 1 1 0
0.114454 90.5587 90.5587 1 1 0
0.114456 90.5505 90.5505 1 1 0
0.114459 90.5424 90.5424 1 1 0
0.114461 90.5343 90.5343 1 1 0
0.114464 90.5262 90.5262 1 1 0
0.114466 90.5181 90.5181 1 1 0
0.114469 90.5099 90.5099 1 1 0
0.114472 90.5018 90.5018 1 1 0
0.114474 90.4937 90.4937 1 1 0
0.114477 90.4856 90.4856 1 1 0
0.114479 90.4775 90.4775 1 1 0
0.114482 90.4694 90.4694 1 1 0
0.114484 90.4612 90.4612 1 1 0
0.114487 90.4531 90.4531 1 1 0
0.11449 90.445 90.445 1 1 0
0.114492 90.4369 90.4369 1 1 0
0.114495 90.4288 90.4288 1 1 0
0.114497 90.4207 90.4207 1 1 0
0.1145 90.4125 90.4125 1 1 0
0.114503 90.4044 90.4044 1 1 0
0.114505 90.3963 90.3963 1 1 0
0.114508 90.3882 90.3882 1 1 0
0.11451 90.3801 90.3801 1 1 0
0.114513 90.372 90.372 1 1 0
0.114515 90.3638 90.3638 1 1 0
0.114518 90.3557 90.3557 1 1 0
0.114521 90.3476 90.3476 1 1 0
0.114523 90.3395 90.3395 1 1 0
0.114526 90.3314 90.3314 1 1 0
0.114528 90.3232 90.3232 1 1 0
0.114531 90.3151 90.3151 1 1 0
0.114533 90.307 90.307 1 1 0
0.114536 90.2989 90.2989 1 1 0
0.114539 90.2908 90.2908 1 1 0
0.114541 90.2827 90.2827 1 1 0
0.114544 90.2745 90.2745 1 1 0
0.114546 90.2664 90.2664 1 1 0
0.114549 90.2583 90.2583 1 1 0
0.114552 90.2502 90.2502 1 1 0
0.114554 90.2421 90.2421 1 1 0
0.114557 90.234 90.234 1 1 0
0.114559 90.2258 90.2258 1 1 0
0.114562 90.2177 90.2177 1 1 0
0.114564 90.2096 90.2096 1 1 0
0.114567 90.2015 90.2015 1 1 0
0.11457 90.1934 90.1934 1 1 0
0.114572 90.1853 90.1853 1 1 0
0.114575 90.1771 90.1771 1 1 0
0.114577 90.169 90.169 1 1 0
0.11458 90.1609 90.1609 1 1 0
0.114583 90.1528 90.1528 1 1 0
0.114585 90.1447 90.1447 1 1 0
0.114588 90.1366 90.1366 1 1 0
0.11459 90.1284 90.1284 1 1 0
0.114593 90.1203 90.1203 1 1 0
0.114595 90.1122 90.1122 1 1 0
0.114598 90.1041 90.1041 1 1 0
0.114601 90.096 90.096 1 1 0
0.114603 90.0878 90.0878 1 1 0
0.114606 90.0797 90.0797 1 1 0
0.114608 90.0716 90.0716 1 1 0
0.114611 90.0635 90.0635 1 1 0
0.114614 90.0554 90.0554 1 1 0
0.114616 90.0473 90.0473 1 1 0
0.114619 90.0391 90.0391 1 1 0
0.114621 90.031 90.031 1 1 0
0.114624 90.0229 90.0229 1 1 0
0.114626 90.0148 90.0148 1 1 0
0.114629 90.0067 90.0067 1 1 0
0.114632 89.9986 89.9986 1 1 0
0.114634 89.9904 89.9904 1 1 0
0.114637 89.9823 89.9823 1 1 0
0.114639 89.9742 89.9742 1 1 0
0.114642 89.9661 89.9661 1 1 0
0.114645 89.958 89.958 1 1 0
0.114647 89.9499 89.9499 1 1 0
0.11465 89.9417 89.9417 1 1 0
0.114652 89.9336 89.9336 1 1 0
0.114655 89.9255 89.9255 1 1 0
0.114658 89.9174 89.9174 1 1 0
0.11466 89.9093 89.9093 1 1 0
0.114663 89.9011 89.9011 1 1 0
0.114665 89.893 89.893 1 1 0
0.114668 89.8849 89.8849 1 1 0
0.11467 89.8768 89.8768 1 1 0
0.114673 89.8687 89.8687 1 1 0
0.114676 89.8606 89.8606 1 1 0
0.114678 89.8524 89.8524 1 1 0
0.114681 89.8443 89.8443 1 1 0
0.114683 89.8362 89.8362 1 1 0
0.114686 89.8281 89.8281 1 1 0
0.114689 89.82 89.82 1 1 0
0.114691 89.8119 89.8119 1 1 0
0.114694 89.8037 89.8037 1 1 0
0.114696 89.7956 89.7956 1 1 0
0.114699 89.7875 89.7875 1 1 0
0.114702 89.7794 89.7794 1 1 0
0.114704 89.7713 89.7713 1 1 0
0.114707 89.7632 89.7632 1 1 0
0.114709 89.755 89.755 1 1 0
0.114712 89.7469 89.7469 1 1 0
0.114715 89.7388 89.7388 1 1 0
0.114717 89.7307 89.7307 1 1 0
0.11472 89.7226 89.7226 1 1 0
0.114722 89.7144 89.7144 1 1 0
0.114725 89.7063 89.7063 1 1 0
0.114727 89.6982 89.6982 1 1 0
0.11473 89.6901 89.6901 1 1 0
0.114733 89.682 89.682 1 1 0
0.114735 89.6739 89.6739 1 1 0
0.114738 89.6657 89.6657 1 1 0
0.11474 89.6576 89.6576 1 1 0
0.114743 89.6495 89.6495 1 1 0
0.114746 89.6414 89.6414 1 1 0
0.114748 89.6333 89.6333 1 1 0
0.114751 89.6252 89.6252 1 1 0
0.114753 89.617 89.617 1 1 0
0.114756 89.6089 89.6089 1 1 0
0.114759 89.6008 89.6008 1 1 0
0.114761 89.5927 89.5927 1 1 0
0.114764 89.5846 89.5846 1 1 0
0.114766 89.5765 89.5765 1 1 0
0.114769 89.5683 89.5683 1 1 0
0.114772 89.5602 89.5602 1 1 0
0.114774 89.5521 89.5521 1 1 0
0.114777 89.544 89.544 1 1 0
0.114779 89.5359 89.5359 1 1 0
0.114782 89.5277 89.5277 1 1 0
0.114785 89.5196 89.5196 1 1 0
0.114787 89.5115 89.5115 1 1 0
0.11479 89.5034 89.5034 1 1 0
0.114792 89.4953 89.4953 1 1 0
0.114795 89.4872 89.4872 1 1 0
0.114798 89.479 89.479 1 1 0
0.1148 89.4709 89.4709 1 1 0
0.114803 89.4628 89.4628 1 1 0
0.114805 89.4547 89.4547 1 1 0
0.114808 89.4466 89.4466 1 1 0
0.114811 89.4385 89.4385 1 1 0
0.114813 89.4303 89.4303 1 1 0
0.114816 89.4222 89.4222 1 1 0
0.114818 89.4141 89.4141 1 1 0
0.114821 89.406 89.406 1 1 0
0.114824 89.3979 89.3979 1 1 0
0.114826 89.3898 89.3898 1 1 0
0.114829 89.3816 89.3816 1 1 0
0.114831 89.3735 89.3735 1 1 0
0.114834 89.3654 89.3654 1 1 0
0.114837 89.3573 89.3573 1 1 0
0.114839 89.3492 89.3492 1 1 0
0.114842 89.341 89.341 1 1 0
0.114844 89.3329 89.3329 1 1 0
0.114847 89.3248 89.3248 1 1 0
0.11485 89.3167 89.3167 1 1 0
0.114852 89.3086 89.3086 1 1 0
0.114855 89.3005 89.3005 1 1 0
0.114857 89.2923 89.2923 1 1 0
0.11486 89.2842 89.2842 1 1 0
0.114863 89.2761 89.2761 1 1 0
0.114865 89.268 89.268 1 1 0
0.114868 89.2599 89.2599 1 1 0
0.11487 89.2518 89.2518 1 1 0
0.114873 89.2436 89.2436 1 1 0
0.114876 89.2355 89.2355 1 1 0
0.114878 89.2274 89.2274 1 1 0
0.114881 89.2193 89.2193 1 1 0
0.114883 89.2112 89.2112 1 1 0
0.114886 89.2031 89.2031 1 1 0
0.114889 89.1949 89.1949 1 1 0
0.114891 89.1868 89.1868 1 1 0
0.114894 89.1787 89.1787 1 1 0
0.114896 89.1706 89.1706 1 1 0
0.114899 89.1625 89.1625 1 1 0
0.114902 89.1544 89.1544 1 1 0
0.114904 89.1462 89.1462 1 1 0
0.114907 89.1381 89.1381 1 1 0
0.114909 89.13 89.13 1 1 0
0.114912 89.1219 89.1219 1 1 0
0.114915 89.1138 89.1138 1 1 0
0.114917 89.1056 89.1056 1 1 0
0.11492 89.0975 89.0975 1 1 0
0.114922 89.0894 89.0894 1 1 0
0.114925 89.0813 89.0813 1 1 0
0.114928 89.0732 89.0732 1 1 0
0.11493 89.0651 89.0651 1 1 0
0.114933 89.0569 89.0569 1 1 0
0.114935 89.0488 89.0488 1 1 0
0.114938 89.0407 89.0407 1 1 0
0.114941 89.0326 89.0326 1 1 0
0.114943 89.0245 89.0245 1 1 0
0.114946 89.0164 89.0164 1 1 0
0.114948 89.0082 89.0082 1 1 0
0.114951 89.0001 89.0001 1 1 0
0.114954 88.992 88.992 1 1 0
0.114956 88.9839 88.9839 1 1 0
0.114959 88.9758 88.9758 1 1 0
0.114962 88.9677 88.9677 1 1 0
0.114964 88.9595 88.9595 1 1 0
0.114967 88.9514 88.9514 1 1 0
0.114969 88.9433 88.9433 1 1 0
0.114972 88.9352 88.9352 1 1 0
0.114975 88.9271 88.9271 1 1 0
0.114977 88.9189 88.9189 1 1 0
0.11498 88.9108 88.9108 1 1 0
0.114982 88.9027 88.9027 1 1 0
0.114985 88.8946 88.8946 1 1 0
0.114988 88.8865 88.8865 1 1 0
0.11499 88.8784 88.8784 1 1 0
0.114993 88.8702 88.8702 1 1 0
0.114995 88.8621 88.8621 1 1 0
0.114998 88.854 88.854 1 1 0
0.115001 88.8459 88.8459 1 1 0
0.115003 88.8378 88.8378 1 1 0
0.115006 88.8297 88.8297 1 1 0
0.115008 88.8215 88.8215 1 1 0
0.115011 88.8134 88.8134 1 1 0
0.115014 88.8053 88.8053 1 1 0
0.115016 88.7972 88.7972 1 1 0
0.115019 88.7891 88.7891 1 1 0
0.115022 88.781 88.781 1 1 0
0.115024 88.7728 88.7728 1 1 0
0.115027 88.7647 88.7647 1 1 0
0.115029 88.7566 88.7566 1 1 0
0.115032 88.7485 88.7485 1 1 0
