0.10578 22696.5 22696.5 1 1 0
0.105782 22697 22697 1 1 0
0.105784 22697.5 22697.5 1 1 0
0.105787 22698 22698 1 1 0
0.105789 22698.5 22698.5 1 1 0
0.105791 22699 22699 1 1 0
0.105793 22699.5 22699.5 1 1 0
0.105795 22700 22700 1 1 0
0.105797 22700.5 22700.5 1 1 0
0.105799 22701 22701 1 1 0
0.105801 22701.5 22701.5 1 1 0
0.105803 22702 22702 1 1 0
0.105806 22702.5 22702.5 1 1 0
0.105808 22703 22703 1 1 0
0.10581 22703.5 22703.5 1 1 0
0.105812 22704 22704 1 1 0
0.105814 22704.5 22704.5 1 1 0
0.105816 22705 22705 1 1 0
0.105818 22705.5 22705.5 1 1 0
0.10582 22706 22706 1 1 0
0.105822 22706.5 22706.5 1 1 0
0.105824 22707 22707 1 1 0
0.105827 22707.5 22707.5 1 1 0
0.105829 22708 22708 1 1 0
0.105831 22708.5 22708.5 1 1 0
0.105833 22709 22709 1 1 0
0.105835 22709.5 22709.5 1 1 0
0.105837 22710 22710 1 1 0
0.105839 22710.5 22710.5 1 1 0
0.105841 22711 22711 1 1 0
0.105843 22711.5 22711.5 1 1 0
0.105846 22712 22712 1 1 0
0.105848 22712.5 22712.5 1 1 0
0.10585 22713 22713 1 1 0
0.105852 22713.5 22713.5 1 1 0
0.105854 22714 22714 1 1 0
0.105856 22714.5 22714.5 1 1 0
0.105858 22715 22715 1 1 0
0.10586 22715.5 22715.5 1 1 0
0.105862 22716 22716 1 1 0
0.105865 22716.5 22716.5 1 1 0
0.105867 22717 22717 1 1 0
0.105869 22717.5 22717.5 1 1 0
0.105871 22718 22718 1 1 0
0.105873 22718.5 22718.5 1 1 0
0.105875 22719 22719 1 1 0
0.105877 22719.5 22719.5 1 1 0
0.105879 22720 22720 1 1 0
0.105881 22720.5 22720.5 1 1 0
0.105884 22721 22721 1 1 0
0.105886 22721.5 22721.5 1 1 0
0.105888 22722 22722 1 1 0
0.10589 22722.5 22722.5 1 1 0
0.105892 22723 22723 1 1 0
0.105894 22723.5 22723.5 1 1 0
0.105896 22724 22724 1 1 0
0.105898 22724.5 22724.5 1 1 0
0.1059 22725 22725 1 1 0
0.105903 22725.5 22725.5 1 1 0
0.105905 22726 22726 1 1 0
0.105907 22726.5 22726.5 1 1 0
0.105909 22727 22727 1 1 0
0.105911 22727.5 22727.5 1 1 0
0.105913 22728 22728 1 1 0
0.105915 22728.5 22728.5 1 1 0
0.105917 22729 22729 1 1 0
0.105919 22729.5 22729.5 1 1 0
0.105922 22730 22730 1 1 0
0.105924 22730.5 22730.5 1 1 0
0.105926 22731 22731 1 1 0
0.105928 22731.5 22731.5 1 1 0
0.10593 22732 22732 1 1 0
0.105932 22732.5 22732.5 1 1 0
0.105934 22733 22733 1 1 0
0.105936 22733.5 22733.5 1 1 0
0.105939 22734 22734 1 1 0
0.105941 22734.5 22734.5 1 1 0
0.105943 22735 22735 1 1 0
0.105945 22735.5 22735.5 1 1 0
0.105947 22736 22736 1 1 0
0.105949 22736.5 22736.5 1 1 0
0.105951 22737 22737 1 1 0
0.105953 22737.5 22737.5 1 1 0
0.105955 22738 22738 1 1 0
0.105958 22738.5 22738.5 1 1 0
0.10596 22739 22739 1 1 0
0.105962 22739.5 22739.5 1 1 0
0.105964 22740 22740 1 1 0
0.105966 22740.5 22740.5 1 1 0
0.105968 22741 22741 1 1 0
0.10597 22741.5 22741.5 1 1 0
0.105972 22742 22742 1 1 0
0.105974 22742.5 22742.5 1 1 0
0.105977 22743 22743 1 1 0
0.105979 22743.5 22743.5 1 1 0
0.105981 22744 22744 1 1 0
0.105983 22744.5 22744.5 1 1 0
0.105985 22745 22745 1 1 0
0.105987 22745.5 22745.5 1 1 0
0.105989 22746 22746 1 1 0
0.105991 22746.5 22746.5 1 1 0
0.105994 22747 22747 1 1 0
0.105996 22747.5 22747.5 1 1 0
0.105998 22748 22748 1 1 0
0.106 22748.5 22748.5 1 1 0
0.106002 22749 22749 1 1 0
0.106004 22749.5 22749.5 1 1 0
0.106006 22750 22750 1 1 0
0.106008 22750.5 22750.5 1 1 0
0.10601 22751 22751 1 1 0
0.106013 22751.5 22751.5 1 1 0
0.106015 22752 22752 1 1 0
0.106017 22752.5 22752.5 1 1 0
0.106019 22753 22753 1 1 0
0.106021 22753.5 22753.5 1 1 0
0.106023 22754 22754 1 1 0
0.106025 22754.5 22754.5 1 1 0
0.106027 22755 22755 1 1 0
0.10603 22755.5 22755.5 1 1 0
0.106032 22756 22756 1 1 0
0.106034 22756.5 22756.5 1 1 0
0.106036 22757 22757 1 1 0
0.106038 22757.5 22757.5 1 1 0
0.10604 22758 22758 1 1 0
0.106042 22758.5 22758.5 1 1 0
0.106044 22759 22759 1 1 0
0.106046 22759.5 22759.5 1 1 0
0.106049 22760 22760 1 1 0
0.106051 22760.5 22760.5 1 1 0
0.106053 22761 22761 1 1 0
0.106055 22761.5 22761.5 1 1 0
0.106057 22762 22762 1 1 0
0.106059 22762.5 22762.5 1 1 0
0.106061 22763 22763 1 1 0
0.106063 22763.5 22763.5 1 1 0
0.106066 22764 22764 1 1 0
0.106068 22764.5 22764.5 1 1 0
0.10607 22765 22765 1 1 0
0.106072 22765.5 22765.5 1 1 0
0.106074 22766 22766 1 1 0
0.106076 22766.5 22766.5 1 1 0
0.106078 22767 22767 1 1 0
0.10608 22767.5 22767.5 1 1 0
0.106083 22768 22768 1 1 0
0.106085 22768.5 22768.5 1 1 0
0.106087 22769 22769 1 1 0
0.106089 22769.5 22769.5 1 1 0
0.106091 22770 22770 1 1 0
0.106093 22770.5 22770.5 1 1 0
0.106095 22771 22771 1 1 0
0.106097 22771.5 22771.5 1 1 0
0.106099 22772 22772 1 1 0
0.106102 22772.5 22772.5 1 1 0
0.106104 22773 22773 1 1 0
0.106106 22773.5 22773.5 1 1 0
0.106108 22774 22774 1 1 0
0.10611 22774.5 22774.5 1 1 0
0.106112 22775 22775 1 1 0
0.106114 22775.5 22775.5 1 1 0
0.106116 22776 22776 1 1 0
0.106119 22776.5 22776.5 1 1 0
0.106121 22777 22777 1 1 0
0.106123 22777.5 22777.5 1 1 0
0.106125 22778 22778 1 1 0
0.106127 22778.5 22778.5 1 1 0
0.106129 22779 22779 1 1 0
0.106131 22779.5 22779.5 1 1 0
0.106133 22780 22780 1 1 0
0.106136 22780.5 22780.5 1 1 0
0.106138 22781 22781 1 1 0
0.10614 22781.5 22781.5 1 1 0
0.106142 22782 22782 1 1 0
0.106144 22782.5 22782.5 1 1 0
0.106146 22783 22783 1 1 0
0.106148 22783.5 22783.5 1 1 0
0.10615 22784 22784 1 1 0
0.106153 22784.5 22784.5 1 1 0
0.106155 22785 22785 1 1 0
0.106157 22785.5 22785.5 1 1 0
0.106159 22786 22786 1 1 0
0.106161 22786.5 22786.5 1 1 0
0.106163 22787 22787 1 1 0
0.106165 22787.5 22787.5 1 1 0
0.106167 22788 22788 1 1 0
0.10617 22788.5 22788.5 1 1 0
0.106172 22789 22789 1 1 0
0.106174 22789.5 22789.5 1 1 0
0.106176 22790 22790 1 1 0
0.106178 22790.5 22790.5 1 1 0
0.10618 22791 22791 1 1 0
0.106182 22791.5 22791.5 1 1 0
0.106184 22792 22792 1 1 0
0.106187 22792.5 22792.5 1 1 0
0.106189 22793 22793 1 1 0
0.106191 22793.5 22793.5 1 1 0
0.106193 22794 22794 1 1 0
0.106195 22794.5 22794.5 1 1 0
0.106197 22795 22795 1 1 0
0.106199 22795.5 22795.5 1 1 0
0.106201 22796 22796 1 1 0
0.106204 22796.5 22796.5 1 1 0
0.106206 22797 22797 1 1 0
0.106208 22797.5 22797.5 1 1 0
0.10621 22798 22798 1 1 0
0.106212 22798.5 22798.5 1 1 0
0.106214 22799 22799 1 1 0
0.106216 22799.5 22799.5 1 1 0
0.106218 22800 22800 1 1 0
0.106221 22800.5 22800.5 1 1 0
0.106223 22801 22801 1 1 0
0.106225 22801.5 22801.5 1 1 0
0.106227 22802 22802 1 1 0
0.106229 22802.5 22802.5 1 1 0
0.106231 22803 22803 1 1 0
0.106233 22803.5 22803.5 1 1 0
0.106235 22804 22804 1 1 0
0.106238 22804.5 22804.5 1 1 0
0.10624 22805 22805 1 1 0
0.106242 22805.5 22805.5 1 1 0
0.106244 22806 22806 1 1 0
0.106246 22806.5 22806.5 1 1 0
0.106248 22807 22807 1 1 0
0.10625 22807.5 22807.5 1 1 0
0.106253 22808 22808 1 1 0
0.106255 22808.5 22808.5 1 1 0
0.106257 22809 22809 1 1 0
0.106259 22809.5 22809.5 1 1 0
0.106261 22810 22810 1 1 0
0.106263 22810.5 22810.5 1 1 0
0.106265 22811 22811 1 1 0
0.106267 22811.5 22811.5 1 1 0
0.10627 22812 22812 1 1 0
0.106272 22812.5 22812.5 1 1 0
0.106274 22813 22813 1 1 0
0.106276 22813.5 22813.5 1 1 0
0.106278 22814 22814 1 1 0
0.10628 22814.5 22814.5 1 1 0
0.106282 22815 22815 1 1 0
0.106284 22815.5 22815.5 1 1 0
0.106287 22816 22816 1 1 0
0.106289 22816.5 22816.5 1 1 0
0.106291 22817 22817 1 1 0
0.106293 22817.5 22817.5 1 1 0
0.106295 22818 22818 1 1 0
0.106297 22818.5 22818.5 1 1 0
0.106299 22819 22819 1 1 0
0.106301 22819.5 22819.5 1 1 0
0.106304 22820 22820 1 1 0
0.106306 22820.5 22820.5 1 1 0
0.106308 22821 22821 1 1 0
0.10631 22821.5 22821.5 1 1 0
0.106312 22822 22822 1 1 0
0.106314 22822.5 22822.5 1 1 0
0.106316 22823 22823 1 1 0
0.106319 22823.5 22823.5 1 1 0
0.106321 22824 22824 1 1 0
0.106323 22824.5 22824.5 1 1 0
0.106325 22825 22825 1 1 0
0.106327 22825.5 22825.5 1 1 0
0.106329 22826 22826 1 1 0
0.106331 22826.5 22826.5 1 1 0
0.106333 22827 22827 1 1 0
0.106336 22827.5 22827.5 1 1 0
0.106338 22828 22828 1 1 0
0.10634 22828.5 22828.5 1 1 0
0.106342 22829 22829 1 1 0
0.106344 22829.5 22829.5 1 1 0
0.106346 22830 22830 1 1 0
0.106348 22830.5 22830.5 1 1 0
0.106351 22831 22831 1 1 0
0.106353 22831.5 22831.5 1 1 0
0.106355 22832 22832 1 1 0
0.106357 22832.5 22832.5 1 1 0
0.106359 22833 22833 1 1 0
0.106361 22833.5 22833.5 1 1 0
0.106363 22834 22834 1 1 0
0.106365 22834.5 22834.5 1 1 0
0.106368 22835 22835 1 1 0
0.10637 22835.5 22835.5 1 1 0
0.106372 22836 22836 1 1 0
0.106374 22836.5 22836.5 1 1 0
0.106376 22837 22837 1 1 0
0.106378 22837.5 22837.5 1 1 0
0.10638 22838 22838 1 1 0
0.106383 22838.5 22838.5 1 1 0
0.106385 22839 22839 1 1 0
0.106387 22839.5 22839.5 1 1 0
0.106389 22840 22840 1 1 0
0.106391 22840.5 22840.5 1 1 0
0.106393 22841 22841 1 1 0
0.106395 22841.5 22841.5 1 1 0
0.106397 22842 22842 1 1 0
0.1064 22842.5 22842.5 1 1 0
0.106402 22843 22843 1 1 0
0.106404 22843.5 22843.5 1 1 0
0.106406 22844 22844 1 1 0
0.106408 22844.5 22844.5 1 1 0
0.10641 22845 22845 1 1 0
0.106412 22845.5 22845.5 1 1 0
0.106415 22846 22846 1 1 0
0.106417 22846.5 22846.5 1 1 0
0.106419 22847 22847 1 1 0
0.106421 22847.5 22847.5 1 1 0
0.106423 22848 22848 1 1 0
0.106425 22848.5 22848.5 1 1 0
0.106427 22849 22849 1 1 0
0.10643 22849.5 22849.5 1 1 0
0.106432 22850 22850 1 1 0
0.106434 22850.5 22850.5 1 1 0
0.106436 22851 22851 1 1 0
0.106438 22851.5 22851.5 1 1 0
0.10644 22852 22852 1 1 0
0.106442 22852.5 22852.5 1 1 0
0.106444 22853 22853 1 1 0
0.106447 22853.5 22853.5 1 1 0
0.106449 22854 22854 1 1 0
0.106451 22854.5 22854.5 1 1 0
0.106453 22855 22855 1 1 0
0.106455 22855.5 22855.5 1 1 0
0.106457 22856 22856 1 1 0
0.106459 22856.5 22856.5 1 1 0
0.106462 22857 22857 1 1 0
0.106464 22857.5 22857.5 1 1 0
0.106466 22858 22858 1 1 0
0.106468 22858.5 22858.5 1 1 0
0.10647 22859 22859 1 1 0
0.106472 22859.5 22859.5 1 1 0
0.106474 22860 22860 1 1 0
0.106477 22860.5 22860.5 1 1 0
0.106479 22861 22861 1 1 0
0.106481 22861.5 22861.5 1 1 0
0.106483 22862 22862 1 1 0
0.106485 22862.5 22862.5 1 1 0
0.106487 22863 22863 1 1 0
0.106489 22863.5 22863.5 1 1 0
0.106492 22864 22864 1 1 0
0.106494 22864.5 22864.5 1 1 0
0.106496 22865 22865 1 1 0
0.106498 22865.5 22865.5 1 1 0
0.1065 22866 22866 1 1 0
0.106502 22866.5 22866.5 1 1 0
0.106504 22867 22867 1 1 0
0.106507 22867.5 22867.5 1 1 0
0.106509 22868 22868 1 1 0
0.106511 22868.5 22868.5 1 1 0
0.106513 22869 22869 1 1 0
0.106515 22869.5 22869.5 1 1 0
0.106517 22870 22870 1 1 0
0.106519 22870.4 22870.4 1 1 0
0.106521 22870.9 22870.9 1 1 0
0.106524 22871.4 22871.4 1 1 0
0.106526 22871.9 22871.9 1 1 0
0.106528 22872.4 22872.4 1 1 0
0.10653 22872.9 22872.9 1 1 0
0.106532 22873.4 22873.4 1 1 0
0.106534 22873.9 22873.9 1 1 0
0.106536 22874.4 22874.4 1 1 0
0.106539 22874.9 22874.9 1 1 0
0.106541 22875.4 22875.4 1 1 0
0.106543 22875.9 22875.9 1 1 0
0.106545 22876.4 22876.4 1 1 0
0.106547 22876.9 22876.9 1 1 0
0.106549 22877.4 22877.4 1 1 0
0.106551 22877.9 22877.9 1 1 0
0.106554 22878.4 22878.4 1 1 0
0.106556 22878.9 22878.9 1 1 0
0.106558 22879.4 22879.4 1 1 0
0.10656 22879.9 22879.9 1 1 0
0.106562 22880.4 22880.4 1 1 0
0.106564 22880.9 22880.9 1 1 0
0.106566 22881.4 22881.4 1 1 0
0.106569 22881.9 22881.9 1 1 0
0.106571 22882.4 22882.4 1 1 0
0.106573 22882.9 22882.9 1 1 0
0.106575 22883.4 22883.4 1 1 0
0.106577 22883.9 22883.9 1 1 0
0.106579 22884.4 22884.4 1 1 0
0.106581 22884.9 22884.9 1 1 0
0.106584 22885.4 22885.4 1 1 0
0.106586 22885.9 22885.9 1 1 0
0.106588 22886.4 22886.4 1 1 0
0.10659 22886.9 22886.9 1 1 0
0.106592 22887.4 22887.4 1 1 0
0.106594 22887.9 22887.9 1 1 0
0.106596 22888.4 22888.4 1 1 0
0.106599 22888.9 22888.9 1 1 0
0.106601 22889.4 22889.4 1 1 0
0.106603 22889.9 22889.9 1 1 0
0.106605 22890.4 22890.4 1 1 0
0.106607 22890.9 22890.9 1 1 0
0.106609 22891.4 22891.4 1 1 0
0.106612 22891.9 22891.9 1 1 0
0.106614 22892.4 22892.4 1 1 0
0.106616 22892.9 22892.9 1 1 0
0.106618 22893.4 22893.4 1 1 0
0.10662 22893.9 22893.9 1 1 0
0.106622 22894.4 22894.4 1 1 0
0.106624 22894.9 22894.9 1 1 0
0.106627 22895.4 22895.4 1 1 0
0.106629 22895.9 22895.9 1 1 0
0.106631 22896.4 22896.4 1 1 0
0.106633 22896.9 22896.9 1 1 0
0.106635 22897.4 22897.4 1 1 0
0.106637 22897.9 22897.9 1 1 0
0.106639 22898.4 22898.4 1 1 0
0.106642 22898.9 22898.9 1 1 0
0.106644 22899.4 22899.4 1 1 0
0.106646 22899.9 22899.9 1 1 0
0.106648 22900.4 22900.4 1 1 0
0.10665 22900.9 22900.9 1 1 0
0.106652 22901.4 22901.4 1 1 0
0.106654 22901.9 22901.9 1 1 0
0.106657 22902.4 22902.4 1 1 0
0.106659 22902.9 22902.9 1 1 0
0.106661 22903.4 22903.4 1 1 0
0.106663 22903.9 22903.9 1 1 0
0.106665 22904.4 22904.4 1 1 0
0.106667 22904.9 22904.9 1 1 0
0.106669 22905.4 22905.4 1 1 0
0.106672 22905.9 22905.9 1 1 0
0.106674 22906.4 22906.4 1 1 0
0.106676 22906.9 22906.9 1 1 0
0.106678 22907.4 22907.4 1 1 0
0.10668 22907.9 22907.9 1 1 0
0.106682 22908.4 22908.4 1 1 0
0.106685 22908.9 22908.9 1 1 0
0.106687 22909.4 22909.4 1 1 0
0.106689 22909.9 22909.9 1 1 0
0.106691 22910.4 22910.4 1 1 0
0.106693 22910.9 22910.9 1 1 0
0.106695 22911.4 22911.4 1 1 0
0.106697 22911.9 22911.9 1 1 0
0.1067 22912.4 22912.4 1 1 0
0.106702 22912.9 22912.9 1 1 0
0.106704 22913.4 22913.4 1 1 0
0.106706 22913.9 22913.9 1 1 0
0.106708 22914.4 22914.4 1 1 0
0.10671 22914.9 22914.9 1 1 0
0.106712 22915.4 22915.4 1 1 0
0.106715 22915.9 22915.9 1 1 0
0.106717 22916.4 22916.4 1 1 0
0.106719 22916.9 22916.9 1 1 0
0.106721 22917.4 22917.4 1 1 0
0.106723 22917.9 22917.9 1 1 0
0.106725 22918.4 22918.4 1 1 0
0.106728 22918.9 22918.9 1 1 0
0.10673 22919.4 22919.4 1 1 0
0.106732 22919.9 22919.9 1 1 0
0.106734 22920.4 22920.4 1 1 0
0.106736 22920.9 22920.9 1 1 0
0.106738 22921.4 22921.4 1 1 0
0.10674 22921.9 22921.9 1 1 0
0.106743 22922.4 22922.4 1 1 0
0.106745 22922.9 22922.9 1 1 0
0.106747 22923.4 22923.4 1 1 0
0.106749 22923.9 22923.9 1 1 0
0.106751 22924.4 22924.4 1 1 0
0.106753 22924.9 22924.9 1 1 0
0.106755 22925.4 22925.4 1 1 0
0.106758 22925.9 22925.9 1 1 0
0.10676 22926.4 22926.4 1 1 0
0.106762 22926.9 22926.9 1 1 0
0.106764 22927.4 22927.4 1 1 0
0.106766 22927.9 22927.9 1 1 0
0.106768 22928.4 22928.4 1 1 0
0.106771 22928.9 22928.9 1 1 0
0.106773 22929.4 22929.4 1 1 0
0.106775 22929.9 22929.9 1 1 0
0.106777 22930.4 22930.4 1 1 0
0.106779 22930.9 22930.9 1 1 0
0.106781 22931.4 22931.4 1 1 0
0.106783 22931.9 22931.9 1 1 0
0.106786 22932.4 22932.4 1 1 0
0.106788 22932.9 22932.9 1 1 0
0.10679 22933.4 22933.4 1 1 0
0.106792 22933.9 22933.9 1 1 0
0.106794 22934.4 22934.4 1 1 0
0.106796 22934.9 22934.9 1 1 0
0.106799 22935.4 22935.4 1 1 0
0.106801 22935.9 22935.9 1 1 0
0.106803 22936.4 22936.4 1 1 0
0.106805 22936.9 22936.9 1 1 0
0.106807 22937.4 22937.4 1 1 0
0.106809 22937.9 22937.9 1 1 0
0.106811 22938.4 22938.4 1 1 0
0.106814 22938.9 22938.9 1 1 0
0.106816 22939.4 22939.4 1 1 0
0.106818 22939.9 22939.9 1 1 0
0.10682 22940.4 22940.4 1 1 0
0.106822 22940.9 22940.9 1 1 0
0.106824 22941.4 22941.4 1 1 0
0.106827 22941.9 22941.9 1 1 0
0.106829 22942.4 22942.4 1 1 0
0.106831 22942.9 22942.9 1 1 0
0.106833 22943.4 22943.4 1 1 0
0.106835 22943.9 22943.9 1 1 0
0.106837 22944.4 22944.4 1 1 0
0.106839 22944.9 22944.9 1 1 0
0.106842 22945.4 22945.4 1 1 0
0.106844 22945.9 22945.9 1 1 0
0.106846 22946.4 22946.4 1 1 0
0.106848 22946.9 22946.9 1 1 0
0.10685 22947.4 22947.4 1 1 0
0.106852 22947.9 22947.9 1 1 0
0.106855 22948.4 22948.4 1 1 0
0.106857 22948.9 22948.9 1 1 0
0.106859 22949.4 22949.4 1 1 0
0.106861 22949.9 22949.9 1 1 0
0.106863 22950.4 22950.4 1 1 0
0.106865 22950.9 22950.9 1 1 0
0.106868 22951.4 22951.4 1 1 0
0.10687 22951.9 22951.9 1 1 0
0.106872 22952.4 22952.4 1 1 0
0.106874 22952.9 22952.9 1 1 0
0.106876 22953.4 22953.4 1 1 0
0.106878 22953.9 22953.9 1 1 0
0.10688 22954.4 22954.4 1 1 0
0.106883 22954.9 22954.9 1 1 0
0.106885 22955.4 22955.4 1 1 0
0.106887 22955.9 22955.9 1 1 0
0.106889 22956.4 22956.4 1 1 0
0.106891 22956.9 22956.9 1 1 0
0.106893 22957.4 22957.4 1 1 0
0.106896 22957.9 22957.9 1 1 0
0.106898 22958.4 22958.4 1 1 0
0.1069 22958.9 22958.9 1 1 0
0.106902 22959.4 22959.4 1 1 0
0.106904 22959.9 22959.9 1 1 0
0.106906 22960.4 22960.4 1 1 0
0.106909 22960.9 22960.9 1 1 0
0.106911 22961.4 22961.4 1 1 0
0.106913 22961.9 22961.9 1 1 0
0.106915 22962.4 22962.4 1 1 0
0.106917 22962.9 22962.9 1 1 0
0.106919 22963.4 22963.4 1 1 0
0.106921 22963.9 22963.9 1 1 0
0.106924 22964.4 22964.4 1 1 0
0.106926 22964.9 22964.9 1 1 0
0.106928 22965.4 22965.4 1 1 0
0.10693 22965.9 22965.9 1 1 0
0.106932 22966.4 22966.4 1 1 0
0.106934 22966.9 22966.9 1 1 0
0.106937 22967.4 22967.4 1 1 0
0.106939 22967.9 22967.9 1 1 0
0.106941 22968.4 22968.4 1 1 0
0.106943 22968.9 22968.9 1 1 0
0.106945 22969.4 22969.4 1 1 0
0.106947 22969.9 22969.9 1 1 0
0.10695 22970.4 22970.4 1 1 0
0.106952 22970.9 22970.9 1 1 0
0.106954 22971.4 22971.4 1 1 0
0.106956 22971.9 22971.9 1 1 0
0.106958 22972.4 22972.4 1 1 0
0.10696 22972.9 22972.9 1 1 0
0.106963 22973.4 22973.4 1 1 0
0.106965 22973.9 22973.9 1 1 0
0.106967 22974.4 22974.4 1 1 0
0.106969 22974.9 22974.9 1 1 0
0.106971 22975.4 22975.4 1 1 0
0.106973 22975.9 22975.9 1 1 0
0.106975 22976.4 22976.4 1 1 0
0.106978 22976.9 22976.9 1 1 0
0.10698 22977.4 22977.4 1 1 0
0.106982 22977.9 22977.9 1 1 0
0.106984 22978.4 22978.4 1 1 0
0.106986 22978.9 22978.9 1 1 0
0.106988 22979.4 22979.4 1 1 0
0.106991 22979.9 22979.9 1 1 0
0.106993 22980.4 22980.4 1 1 0
0.106995 22980.9 22980.9 1 1 0
0.106997 22981.4 22981.4 1 1 0
0.106999 22981.9 22981.9 1 1 0
0.107001 22982.4 22982.4 1 1 0
0.107004 22982.9 22982.9 1 1 0
0.107006 22983.4 22983.4 1 1 0
0.107008 22983.9 22983.9 1 1 0
0.10701 22984.4 22984.4 1 1 0
0.107012 22984.9 22984.9 1 1 0
0.107014 22985.4 22985.4 1 1 0
0.107017 22985.9 22985.9 1 1 0
0.107019 22986.4 22986.4 1 1 0
0.107021 22986.9 22986.9 1 1 0
0.107023 22987.4 22987.4 1 1 0
0.107025 22987.9 22987.9 1 1 0
0.107027 22988.4 22988.4 1 1 0
0.10703 22988.9 22988.9 1 1 0
0.107032 22989.4 22989.4 1 1 0
0.107034 22989.9 22989.9 1 1 0
0.107036 22990.4 22990.4 1 1 0
0.107038 22990.9 22990.9 1 1 0
0.10704 22991.4 22991.4 1 1 0
0.107043 22991.9 22991.9 1 1 0
0.107045 22992.4 22992.4 1 1 0
0.107047 22992.9 22992.9 1 1 0
0.107049 22993.4 22993.4 1 1 0
0.107051 22993.9 22993.9 1 1 0
0.107053 22994.4 22994.4 1 1 0
0.107056 22994.9 22994.9 1 1 0
0.107058 22995.4 22995.4 1 1 0
0.10706 22995.9 22995.9 1 1 0
0.107062 22996.4 22996.4 1 1 0
0.107064 22996.9 22996.9 1 1 0
0.107066 22997.4 22997.4 1 1 0
0.107069 22997.9 22997.9 1 1 0
0.107071 22998.4 22998.4 1 1 0
0.107073 22998.9 22998.9 1 1 0
0.107075 22999.4 22999.4 1 1 0
0.107077 22999.9 22999.9 1 1 0
0.107079 23000.4 23000.4 1 1 0
0.107082 23000.9 23000.9 1 1 0
0.107084 23001.4 23001.4 1 1 0
0.107086 23001.9 23001.9 1 1 0
0.107088 23002.4 23002.4 1 1 0
0.10709 23002.9 23002.9 1 1 0
0.107092 23003.4 23003.4 1 1 0
0.107095 23003.9 23003.9 1 1 0
0.107097 23004.4 23004.4 1 1 0
0.107099 23004.9 23004.9 1 1 0
0.107101 23005.4 23005.4 1 1 0
0.107103 23005.9 23005.9 1 1 0
0.107105 23006.4 23006.4 1 1 0
0.107108 23006.9 23006.9 1 1 0
0.10711 23007.4 23007.4 1 1 0
0.107112 23007.9 23007.9 1 1 0
0.107114 23008.4 23008.4 1 1 0
0.107116 23008.9 23008.9 1 1 0
0.107118 23009.4 23009.4 1 1 0
0.107121 23009.9 23009.9 1 1 0
0.107123 23010.4 23010.4 1 1 0
0.107125 23010.9 23010.9 1 1 0
0.107127 23011.4 23011.4 1 1 0
0.107129 23011.9 23011.9 1 1 0
0.107131 23012.4 23012.4 1 1 0
0.107134 23012.9 23012.9 1 1 0
0.107136 23013.4 23013.4 1 1 0
0.107138 23013.9 23013.9 1 1 0
0.10714 23014.4 23014.4 1 1 0
0.107142 23014.9 23014.9 1 1 0
0.107144 23015.4 23015.4 1 1 0
0.107147 23015.9 23015.9 1 1 0
0.107149 23016.4 23016.4 1 1 0
0.107151 23016.9 23016.9 1 1 0
0.107153 23017.4 23017.4 1 1 0
0.107155 23017.9 23017.9 1 1 0
0.107157 23018.4 23018.4 1 1 0
0.10716 23018.9 23018.9 1 1 0
0.107162 23019.4 23019.4 1 1 0
0.107164 23019.9 23019.9 1 1 0
0.107166 23020.4 23020.4 1 1 0
0.107168 23020.9 23020.9 1 1 0
0.107171 23021.4 23021.4 1 1 0
0.107173 23021.9 23021.9 1 1 0
0.107175 23022.4 23022.4 1 1 0
0.107177 23022.9 23022.9 1 1 0
0.107179 23023.4 23023.4 1 1 0
0.107181 23023.9 23023.9 1 1 0
0.107184 23024.4 23024.4 1 1 0
0.107186 23024.9 23024.9 1 1 0
0.107188 23025.4 23025.4 1 1 0
0.10719 23025.9 23025.9 1 1 0
0.107192 23026.4 23026.4 1 1 0
0.107194 23026.9 23026.9 1 1 0
0.107197 23027.4 23027.4 1 1 0
0.107199 23027.9 23027.9 1 1 0
0.107201 23028.4 23028.4 1 1 0
0.107203 23028.9 23028.9 1 1 0
0.107205 23029.4 23029.4 1 1 0
0.107207 23029.9 23029.9 1 1 0
0.10721 23030.4 23030.4 1 1 0
0.107212 23030.9 23030.9 1 1 0
0.107214 23031.4 23031.4 1 1 0
0.107216 23031.9 23031.9 1 1 0
0.107218 23032.4 23032.4 1 1 0
0.10722 23032.9 23032.9 1 1 0
0.107223 23033.4 23033.4 1 1 0
0.107225 23033.9 23033.9 1 1 0
0.107227 23034.4 23034.4 1 1 0
0.107229 23034.9 23034.9 1 1 0
0.107231 23035.4 23035.4 1 1 0
0.107234 23035.9 23035.9 1 1 0
0.107236 23036.4 23036.4 1 1 0
0.107238 23036.9 23036.9 1 1 0
0.10724 23037.4 23037.4 1 1 0
0.107242 23037.9 23037.9 1 1 0
0.107244 23038.4 23038.4 1 1 0
0.107247 23038.9 23038.9 1 1 0
0.107249 23039.4 23039.4 1 1 0
0.107251 23039.9 23039.9 1 1 0
0.107253 23040.4 23040.4 1 1 0
0.107255 23040.9 23040.9 1 1 0
0.107257 23041.4 23041.4 1 1 0
0.10726 23041.9 23041.9 1 1 0
0.107262 23042.4 23042.4 1 1 0
0.107264 23042.9 23042.9 1 1 0
0.107266 23043.4 23043.4 1 1 0
0.107268 23043.9 23043.9 1 1 0
0.107271 23044.4 23044.4 1 1 0
0.107273 23044.9 23044.9 1 1 0
0.107275 23045.4 23045.4 1 1 0
0.107277 23045.9 23045.9 1 1 0
0.107279 23046.4 23046.4 1 1 0
0.107281 23046.9 23046.9 1 1 0
0.107284 23047.4 23047.4 1 1 0
0.107286 23047.9 23047.9 1 1 0
0.107288 23048.4 23048.4 1 1 0
0.10729 23048.9 23048.9 1 1 0
0.107292 23049.4 23049.4 1 1 0
0.107294 23049.9 23049.9 1 1 0
0.107297 23050.4 23050.4 1 1 0
0.107299 23050.9 23050.9 1 1 0
0.107301 23051.4 23051.4 1 1 0
0.107303 23051.9 23051.9 1 1 0
0.107305 23052.4 23052.4 1 1 0
0.107308 23052.9 23052.9 1 1 0
0.10731 23053.4 23053.4 1 1 0
0.107312 23053.9 23053.9 1 1 0
0.107314 23054.4 23054.4 1 1 0
0.107316 23054.9 23054.9 1 1 0
0.107318 23055.4 23055.4 1 1 0
0.107321 23055.9 23055.9 1 1 0
0.107323 23056.4 23056.4 1 1 0
0.107325 23056.9 23056.9 1 1 0
0.107327 23057.4 23057.4 1 1 0
0.107329 23057.9 23057.9 1 1 0
0.107332 23058.4 23058.4 1 1 0
0.107334 23058.9 23058.9 1 1 0
0.107336 23059.4 23059.4 1 1 0
0.107338 23059.9 23059.9 1 1 0
0.10734 23060.4 23060.4 1 1 0
0.107342 23060.9 23060.9 1 1 0
0.107345 23061.4 23061.4 1 1 0
0.107347 23061.9 23061.9 1 1 0
0.107349 23062.4 23062.4 1 1 0
0.107351 23062.9 23062.9 1 1 0
0.107353 23063.4 23063.4 1 1 0
0.107355 23063.9 23063.9 1 1 0
0.107358 23064.4 23064.4 1 1 0
0.10736 23064.9 23064.9 1 1 0
0.107362 23065.4 23065.4 1 1 0
0.107364 23065.9 23065.9 1 1 0
0.107366 23066.4 23066.4 1 1 0
0.107369 23066.9 23066.9 1 1 0
0.107371 23067.4 23067.4 1 1 0
0.107373 23067.9 23067.9 1 1 0
0.107375 23068.4 23068.4 1 1 0
0.107377 23068.9 23068.9 1 1 0
0.107379 23069.4 23069.4 1 1 0
0.107382 23069.9 23069.9 1 1 0
0.107384 23070.4 23070.4 1 1 0
0.107386 23070.9 23070.9 1 1 0
0.107388 23071.4 23071.4 1 1 0
0.10739 23071.9 23071.9 1 1 0
0.107393 23072.4 23072.4 1 1 0
0.107395 23072.9 23072.9 1 1 0
0.107397 23073.4 23073.4 1 1 0
0.107399 23073.9 23073.9 1 1 0
0.107401 23074.4 23074.4 1 1 0
0.107403 23074.9 23074.9 1 1 0
0.107406 23075.4 23075.4 1 1 0
0.107408 23075.9 23075.9 1 1 0
0.10741 23076.4 23076.4 1 1 0
0.107412 23076.9 23076.9 1 1 0
0.107414 23077.4 23077.4 1 1 0
0.107417 23077.9 23077.9 1 1 0
0.107419 23078.4 23078.4 1 1 0
0.107421 23078.9 23078.9 1 1 0
0.107423 23079.4 23079.4 1 1 0
0.107425 23079.9 23079.9 1 1 0
0.107427 23080.4 23080.4 1 1 0
0.10743 23080.9 23080.9 1 1 0
0.107432 23081.4 23081.4 1 1 0
0.107434 23081.9 23081.9 1 1 0
0.107436 23082.4 23082.4 1 1 0
0.107438 23082.9 23082.9 1 1 0
0.107441 23083.4 23083.4 1 1 0
0.107443 23083.9 23083.9 1 1 0
0.107445 23084.4 23084.4 1 1 0
0.107447 23084.9 23084.9 1 1 0
0.107449 23085.4 23085.4 1 1 0
0.107452 23085.9 23085.9 1 1 0
0.107454 23086.4 23086.4 1 1 0
0.107456 23086.9 23086.9 1 1 0
0.107458 23087.4 23087.4 1 1 0
0.10746 23087.9 23087.9 1 1 0
0.107462 23088.4 23088.4 1 1 0
0.107465 23088.9 23088.9 1 1 0
0.107467 23089.4 23089.4 1 1 0
0.107469 23089.9 23089.9 1 1 0
0.107471 23090.4 23090.4 1 1 0
0.107473 23090.9 23090.9 1 1 0
0.107476 23091.4 23091.4 1 1 0
0.107478 23091.9 23091.9 1 1 0
0.10748 23092.4 23092.4 1 1 0
0.107482 23092.9 23092.9 1 1 0
0.107484 23093.4 23093.4 1 1 0
0.107486 23093.9 23093.9 1 1 0
0.107489 23094.4 23094.4 1 1 0
0.107491 23094.9 23094.9 1 1 0
0.107493 23095.4 23095.4 1 1 0
0.107495 23095.9 23095.9 1 1 0
0.107497 23096.4 23096.4 1 1 0
0.1075 23096.9 23096.9 1 1 0
0.107502 23097.4 23097.4 1 1 0
0.107504 23097.9 23097.9 1 1 0
0.107506 23098.4 23098.4 1 1 0
0.107508 23098.9 23098.9 1 1 0
0.107511 23099.4 23099.4 1 1 0
0.107513 23099.9 23099.9 1 1 0
0.107515 23100.4 23100.4 1 1 0
0.107517 23100.9 23100.9 1 1 0
0.107519 23101.4 23101.4 1 1 0
0.107521 23101.9 23101.9 1 1 0
0.107524 23102.4 23102.4 1 1 0
0.107526 23102.9 23102.9 1 1 0
0.107528 23103.4 23103.4 1 1 0
0.10753 23103.9 23103.9 1 1 0
0.107532 23104.4 23104.4 1 1 0
0.107535 23104.9 23104.9 1 1 0
0.107537 23105.4 23105.4 1 1 0
0.107539 23105.9 23105.9 1 1 0
0.107541 23106.4 23106.4 1 1 0
0.107543 23106.9 23106.9 1 1 0
0.107546 23107.4 23107.4 1 1 0
0.107548 23107.9 23107.9 1 1 0
0.10755 23108.4 23108.4 1 1 0
0.107552 23108.9 23108.9 1 1 0
0.107554 23109.4 23109.4 1 1 0
0.107557 23109.9 23109.9 1 1 0
0.107559 23110.4 23110.4 1 1 0
0.107561 23110.9 23110.9 1 1 0
0.107563 23111.4 23111.4 1 1 0
0.107565 23111.9 23111.9 1 1 0
0.107567 23112.4 23112.4 1 1 0
0.10757 23112.9 23112.9 1 1 0
0.107572 23113.4 23113.4 1 1 0
0.107574 23113.9 23113.9 1 1 0
0.107576 23114.4 23114.4 1 1 0
0.107578 23114.9 23114.9 1 1 0
0.107581 23115.4 23115.4 1 1 0
0.107583 23115.9 23115.9 1 1 0
0.107585 23116.4 23116.4 1 1 0
0.107587 23116.9 23116.9 1 1 0
0.107589 23117.4 23117.4 1 1 0
0.107592 23117.9 23117.9 1 1 0
0.107594 23118.4 23118.4 1 1 0
0.107596 23118.9 23118.9 1 1 0
0.107598 23119.4 23119.4 1 1 0
0.1076 23119.9 23119.9 1 1 0
0.107603 23120.4 23120.4 1 1 0
0.107605 23120.9 23120.9 1 1 0
0.107607 23121.4 23121.4 1 1 0
0.107609 23121.9 23121.9 1 1 0
0.107611 23122.4 23122.4 1 1 0
0.107614 23122.9 23122.9 1 1 0
0.107616 23123.4 23123.4 1 1 0
0.107618 23123.9 23123.9 1 1 0
0.10762 23124.4 23124.4 1 1 0
0.107622 23124.9 23124.9 1 1 0
0.107624 23125.4 23125.4 1 1 0
0.107627 23125.9 23125.9 1 1 0
0.107629 23126.4 23126.4 1 1 0
0.107631 23126.9 23126.9 1 1 0
0.107633 23127.4 23127.4 1 1 0
0.107635 23127.9 23127.9 1 1 0
0.107638 23128.4 23128.4 1 1 0
0.10764 23128.9 23128.9 1 1 0
0.107642 23129.4 23129.4 1 1 0
0.107644 23129.9 23129.9 1 1 0
0.107646 23130.4 23130.4 1 1 0
0.107649 23130.9 23130.9 1 1 0
0.107651 23131.4 23131.4 1 1 0
0.107653 23131.9 23131.9 1 1 0
0.107655 23132.4 23132.4 1 1 0
0.107657 23132.9 23132.9 1 1 0
0.10766 23133.4 23133.4 1 1 0
0.107662 23133.9 23133.9 1 1 0
0.107664 23134.4 23134.4 1 1 0
0.107666 23134.9 23134.9 1 1 0
0.107668 23135.4 23135.4 1 1 0
0.107671 23135.9 23135.9 1 1 0
0.107673 23136.4 23136.4 1 1 0
0.107675 23136.9 23136.9 1 1 0
0.107677 23137.4 23137.4 1 1 0
0.107679 23137.9 23137.9 1 1 0
0.107682 23138.4 23138.4 1 1 0
0.107684 23138.9 23138.9 1 1 0
0.107686 23139.4 23139.4 1 1 0
0.107688 23139.9 23139.9 1 1 0
0.10769 23140.4 23140.4 1 1 0
0.107693 23140.9 23140.9 1 1 0
0.107695 23141.4 23141.4 1 1 0
0.107697 23141.9 23141.9 1 1 0
0.107699 23142.4 23142.4 1 1 0
0.107701 23142.9 23142.9 1 1 0
0.107704 23143.4 23143.4 1 1 0
0.107706 23143.9 23143.9 1 1 0
0.107708 23144.4 23144.4 1 1 0
0.10771 23144.9 23144.9 1 1 0
0.107712 23145.4 23145.4 1 1 0
0.107714 23145.9 23145.9 1 1 0
0.107717 23146.4 23146.4 1 1 0
0.107719 23146.9 23146.9 1 1 0
0.107721 23147.4 23147.4 1 1 0
0.107723 23147.9 23147.9 1 1 0
0.107725 23148.4 23148.4 1 1 0
0.107728 23148.9 23148.9 1 1 0
0.10773 23149.4 23149.4 1 1 0
0.107732 23149.9 23149.9 1 1 0
0.107734 23150.4 23150.4 1 1 0
0.107736 23150.9 23150.9 1 1 0
0.107739 23151.4 23151.4 1 1 0
0.107741 23151.9 23151.9 1 1 0
0.107743 23152.4 23152.4 1 1 0
0.107745 23152.9 23152.9 1 1 0
0.107747 23153.4 23153.4 1 1 0
0.10775 23153.9 23153.9 1 1 0
0.107752 23154.4 23154.4 1 1 0
0.107754 23154.9 23154.9 1 1 0
0.107756 23155.4 23155.4 1 1 0
0.107758 23155.9 23155.9 1 1 0
0.107761 23156.4 23156.4 1 1 0
0.107763 23156.9 23156.9 1 1 0
0.107765 23157.4 23157.4 1 1 0
0.107767 23157.9 23157.9 1 1 0
0.107769 23158.4 23158.4 1 1 0
0.107772 23158.9 23158.9 1 1 0
0.107774 23159.4 23159.4 1 1 0
0.107776 23159.9 23159.9 1 1 0
0.107778 23160.4 23160.4 1 1 0
0.10778 23160.9 23160.9 1 1 0
0.107783 23161.4 23161.4 1 1 0
0.107785 23161.9 23161.9 1 1 0
0.107787 23162.4 23162.4 1 1 0
0.107789 23162.9 23162.9 1 1 0
0.107791 23163.4 23163.4 1 1 0
0.107794 23163.9 23163.9 1 1 0
0.107796 23164.4 23164.4 1 1 0
0.107798 23164.9 23164.9 1 1 0
0.1078 23165.4 23165.4 1 1 0
0.107802 23165.9 23165.9 1 1 0
0.107805 23166.4 23166.4 1 1 0
0.107807 23166.9 23166.9 1 1 0
0.107809 23167.4 23167.4 1 1 0
0.107811 23167.9 23167.9 1 1 0
0.107813 23168.4 23168.4 1 1 0
0.107816 23168.9 23168.9 1 1 0
0.107818 23169.4 23169.4 1 1 0
0.10782 23169.9 23169.9 1 1 0
0.107822 23170.4 23170.4 1 1 0
0.107825 23170.9 23170.9 1 1 0
0.107827 23171.4 23171.4 1 1 0
0.107829 23171.9 23171.9 1 1 0
0.107831 23172.4 23172.4 1 1 0
0.107833 23172.9 23172.9 1 1 0
0.107836 23173.4 23173.4 1 1 0
0.107838 23173.9 23173.9 1 1 0
0.10784 23174.4 23174.4 1 1 0
0.107842 23174.9 23174.9 1 1 0
0.107844 23175.4 23175.4 1 1 0
0.107847 23175.9 23175.9 1 1 0
0.107849 23176.4 23176.4 1 1 0
0.107851 23176.9 23176.9 1 1 0
0.107853 23177.4 23177.4 1 1 0
0.107855 23177.9 23177.9 1 1 0
0.107858 23178.4 23178.4 1 1 0
0.10786 23178.9 23178.9 1 1 0
0.107862 23179.4 23179.4 1 1 0
0.107864 23179.9 23179.9 1 1 0
0.107866 23180.4 23180.4 1 1 0
0.107869 23180.9 23180.9 1 1 0
0.107871 23181.4 23181.4 1 1 0
0.107873 23181.9 23181.9 1 1 0
0.107875 23182.4 23182.4 1 1 0
0.107877 23182.9 23182.9 1 1 0
0.10788 23183.4 23183.4 1 1 0
0.107882 23183.9 23183.9 1 1 0
0.107884 23184.4 23184.4 1 1 0
0.107886 23184.9 23184.9 1 1 0
0.107888 23185.4 23185.4 1 1 0
0.107891 23185.9 23185.9 1 1 0
0.107893 23186.4 23186.4 1 1 0
0.107895 23186.9 23186.9 1 1 0
0.107897 23187.4 23187.4 1 1 0
0.107899 23187.9 23187.9 1 1 0
0.107902 23188.4 23188.4 1 1 0
0.107904 23188.9 23188.9 1 1 0
0.107906 23189.4 23189.4 1 1 0
0.107908 23189.9 23189.9 1 1 0
0.107911 23190.4 23190.4 1 1 0
0.107913 23190.9 23190.9 1 1 0
0.107915 23191.4 23191.4 1 1 0
0.107917 23191.9 23191.9 1 1 0
0.107919 23192.4 23192.4 1 1 0
0.107922 23192.9 23192.9 1 1 0
0.107924 23193.4 23193.4 1 1 0
0.107926 23193.9 23193.9 1 1 0
0.107928 23194.4 23194.4 1 1 0
0.10793 23194.9 23194.9 1 1 0
0.107933 23195.4 23195.4 1 1 0
0.107935 23195.9 23195.9 1 1 0
0.107937 23196.4 23196.4 1 1 0
0.107939 23196.9 23196.9 1 1 0
0.107941 23197.4 23197.4 1 1 0
0.107944 23197.9 23197.9 1 1 0
0.107946 23198.4 23198.4 1 1 0
0.107948 23198.9 23198.9 1 1 0
0.10795 23199.4 23199.4 1 1 0
0.107952 23199.9 23199.9 1 1 0
0.107955 23200.4 23200.4 1 1 0
0.107957 23200.9 23200.9 1 1 0
0.107959 23201.4 23201.4 1 1 0
0.107961 23201.9 23201.9 1 1 0
0.107964 23202.4 23202.4 1 1 0
0.107966 23202.9 23202.9 1 1 0
0.107968 23203.4 23203.4 1 1 0
0.10797 23203.9 23203.9 1 1 0
0.107972 23204.4 23204.4 1 1 0
0.107975 23204.9 23204.9 1 1 0
0.107977 23205.4 23205.4 1 1 0
0.107979 23205.9 23205.9 1 1 0
0.107981 23206.4 23206.4 1 1 0
0.107983 23206.9 23206.9 1 1 0
0.107986 23207.4 23207.4 1 1 0
0.107988 23207.9 23207.9 1 1 0
0.10799 23208.4 23208.4 1 1 0
0.107992 23208.9 23208.9 1 1 0
0.107994 23209.4 23209.4 1 1 0
0.107997 23209.9 23209.9 1 1 0
0.107999 23210.4 23210.4 1 1 0
0.108001 23210.9 23210.9 1 1 0
0.108003 23211.4 23211.4 1 1 0
0.108006 23211.9 23211.9 1 1 0
0.108008 23212.4 23212.4 1 1 0
0.10801 23212.9 23212.9 1 1 0
0.108012 23213.4 23213.4 1 1 0
0.108014 23213.9 23213.9 1 1 0
0.108017 23214.4 23214.4 1 1 0
0.108019 23214.9 23214.9 1 1 0
0.108021 23215.4 23215.4 1 1 0
0.108023 23215.9 23215.9 1 1 0
0.108025 23216.4 23216.4 1 1 0
0.108028 23216.9 23216.9 1 1 0
0.10803 23217.4 23217.4 1 1 0
0.108032 23217.9 23217.9 1 1 0
0.108034 23218.4 23218.4 1 1 0
0.108037 23218.9 23218.9 1 1 0
0.108039 23219.4 23219.4 1 1 0
0.108041 23219.9 23219.9 1 1 0
0.108043 23220.3 23220.3 1 1 0
0.108045 23220.8 23220.8 1 1 0
0.108048 23221.3 23221.3 1 1 0
0.10805 23221.8 23221.8 1 1 0
0.108052 23222.3 23222.3 1 1 0
0.108054 23222.8 23222.8 1 1 0
0.108056 23223.3 23223.3 1 1 0
0.108059 23223.8 23223.8 1 1 0
0.108061 23224.3 23224.3 1 1 0
0.108063 23224.8 23224.8 1 1 0
0.108065 23225.3 23225.3 1 1 0
0.108068 23225.8 23225.8 1 1 0
0.10807 23226.3 23226.3 1 1 0
0.108072 23226.8 23226.8 1 1 0
0.108074 23227.3 23227.3 1 1 0
0.108076 23227.8 23227.8 1 1 0
0.108079 23228.3 23228.3 1 1 0
0.108081 23228.8 23228.8 1 1 0
0.108083 23229.3 23229.3 1 1 0
0.108085 23229.8 23229.8 1 1 0
0.108087 23230.3 23230.3 1 1 0
0.10809 23230.8 23230.8 1 1 0
0.108092 23231.3 23231.3 1 1 0
0.108094 23231.8 23231.8 1 1 0
0.108096 23232.3 23232.3 1 1 0
0.108099 23232.8 23232.8 1 1 0
0.108101 23233.3 23233.3 1 1 0
0.108103 23233.8 23233.8 1 1 0
0.108105 23234.3 23234.3 1 1 0
0.108107 23234.8 23234.8 1 1 0
0.10811 23235.3 23235.3 1 1 0
0.108112 23235.8 23235.8 1 1 0
0.108114 23236.3 23236.3 1 1 0
0.108116 23236.8 23236.8 1 1 0
0.108118 23237.3 23237.3 1 1 0
0.108121 23237.8 23237.8 1 1 0
0.108123 23238.3 23238.3 1 1 0
0.108125 23238.8 23238.8 1 1 0
0.108127 23239.3 23239.3 1 1 0
0.10813 23239.8 23239.8 1 1 0
0.108132 23240.3 23240.3 1 1 0
0.108134 23240.8 23240.8 1 1 0
0.108136 23241.3 23241.3 1 1 0
0.108138 23241.8 23241.8 1 1 0
0.108141 23242.3 23242.3 1 1 0
0.108143 23242.8 23242.8 1 1 0
0.108145 23243.3 23243.3 1 1 0
0.108147 23243.8 23243.8 1 1 0
0.10815 23244.3 23244.3 1 1 0
0.108152 23244.8 23244.8 1 1 0
0.108154 23245.3 23245.3 1 1 0
0.108156 23245.8 23245.8 1 1 0
0.108158 23246.3 23246.3 1 1 0
0.108161 23246.8 23246.8 1 1 0
0.108163 23247.3 23247.3 1 1 0
0.108165 23247.8 23247.8 1 1 0
0.108167 23248.3 23248.3 1 1 0
0.10817 23248.8 23248.8 1 1 0
0.108172 23249.3 23249.3 1 1 0
0.108174 23249.8 23249.8 1 1 0
0.108176 23250.3 23250.3 1 1 0
0.108178 23250.8 23250.8 1 1 0
0.108181 23251.3 23251.3 1 1 0
0.108183 23251.8 23251.8 1 1 0
0.108185 23252.3 23252.3 1 1 0
0.108187 23252.8 23252.8 1 1 0
0.10819 23253.3 23253.3 1 1 0
0.108192 23253.8 23253.8 1 1 0
0.108194 23254.3 23254.3 1 1 0
0.108196 23254.8 23254.8 1 1 0
0.108198 23255.3 23255.3 1 1 0
0.108201 23255.8 23255.8 1 1 0
0.108203 23256.3 23256.3 1 1 0
0.108205 23256.8 23256.8 1 1 0
0.108207 23257.3 23257.3 1 1 0
0.10821 23257.8 23257.8 1 1 0
0.108212 23258.3 23258.3 1 1 0
0.108214 23258.8 23258.8 1 1 0
0.108216 23259.3 23259.3 1 1 0
0.108218 23259.8 23259.8 1 1 0
0.108221 23260.3 23260.3 1 1 0
0.108223 23260.8 23260.8 1 1 0
0.108225 23261.3 23261.3 1 1 0
0.108227 23261.8 23261.8 1 1 0
0.10823 23262.3 23262.3 1 1 0
0.108232 23262.8 23262.8 1 1 0
0.108234 23263.3 23263.3 1 1 0
0.108236 23263.8 23263.8 1 1 0
0.108238 23264.3 23264.3 1 1 0
0.108241 23264.8 23264.8 1 1 0
0.108243 23265.3 23265.3 1 1 0
0.108245 23265.8 23265.8 1 1 0
0.108247 23266.3 23266.3 1 1 0
0.10825 23266.8 23266.8 1 1 0
0.108252 23267.3 23267.3 1 1 0
0.108254 23267.8 23267.8 1 1 0
0.108256 23268.3 23268.3 1 1 0
0.108258 23268.8 23268.8 1 1 0
0.108261 23269.3 23269.3 1 1 0
0.108263 23269.8 23269.8 1 1 0
0.108265 23270.3 23270.3 1 1 0
0.108267 23270.8 23270.8 1 1 0
0.10827 23271.3 23271.3 1 1 0
0.108272 23271.8 23271.8 1 1 0
0.108274 23272.3 23272.3 1 1 0
0.108276 23272.8 23272.8 1 1 0
0.108278 23273.3 23273.3 1 1 0
0.108281 23273.8 23273.8 1 1 0
0.108283 23274.3 23274.3 1 1 0
0.108285 23274.8 23274.8 1 1 0
0.108287 23275.3 23275.3 1 1 0
0.10829 23275.8 23275.8 1 1 0
0.108292 23276.3 23276.3 1 1 0
0.108294 23276.8 23276.8 1 1 0
0.108296 23277.3 23277.3 1 1 0
0.108298 23277.8 23277.8 1 1 0
0.108301 23278.3 23278.3 1 1 0
0.108303 23278.8 23278.8 1 1 0
0.108305 23279.3 23279.3 1 1 0
0.108307 23279.8 23279.8 1 1 0
0.10831 23280.3 23280.3 1 1 0
0.108312 23280.8 23280.8 1 1 0
0.108314 23281.3 23281.3 1 1 0
0.108316 23281.8 23281.8 1 1 0
0.108319 23282.3 23282.3 1 1 0
0.108321 23282.8 23282.8 1 1 0
0.108323 23283.3 23283.3 1 1 0
0.108325 23283.8 23283.8 1 1 0
0.108327 23284.3 23284.3 1 1 0
0.10833 23284.8 23284.8 1 1 0
0.108332 23285.3 23285.3 1 1 0
0.108334 23285.8 23285.8 1 1 0
0.108336 23286.3 23286.3 1 1 0
0.108339 23286.8 23286.8 1 1 0
0.108341 23287.3 23287.3 1 1 0
0.108343 23287.8 23287.8 1 1 0
0.108345 23288.3 23288.3 1 1 0
0.108347 23288.8 23288.8 1 1 0
0.10835 23289.3 23289.3 1 1 0
0.108352 23289.8 23289.8 1 1 0
0.108354 23290.3 23290.3 1 1 0
0.108356 23290.8 23290.8 1 1 0
0.108359 23291.3 23291.3 1 1 0
0.108361 23291.8 23291.8 1 1 0
0.108363 23292.3 23292.3 1 1 0
0.108365 23292.8 23292.8 1 1 0
0.108368 23293.3 23293.3 1 1 0
0.10837 23293.8 23293.8 1 1 0
0.108372 23294.3 23294.3 1 1 0
0.108374 23294.8 23294.8 1 1 0
0.108376 23295.3 23295.3 1 1 0
0.108379 23295.8 23295.8 1 1 0
0.108381 23296.3 23296.3 1 1 0
0.108383 23296.8 23296.8 1 1 0
0.108385 23297.3 23297.3 1 1 0
0.108388 23297.8 23297.8 1 1 0
0.10839 23298.3 23298.3 1 1 0
0.108392 23298.8 23298.8 1 1 0
0.108394 23299.3 23299.3 1 1 0
0.108397 23299.8 23299.8 1 1 0
0.108399 23300.3 23300.3 1 1 0
0.108401 23300.8 23300.8 1 1 0
0.108403 23301.3 23301.3 1 1 0
0.108405 23301.8 23301.8 1 1 0
0.108408 23302.3 23302.3 1 1 0
0.10841 23302.8 23302.8 1 1 0
0.108412 23303.3 23303.3 1 1 0
0.108414 23303.8 23303.8 1 1 0
0.108417 23304.3 23304.3 1 1 0
0.108419 23304.8 23304.8 1 1 0
0.108421 23305.3 23305.3 1 1 0
0.108423 23305.8 23305.8 1 1 0
0.108426 23306.3 23306.3 1 1 0
0.108428 23306.8 23306.8 1 1 0
0.10843 23307.3 23307.3 1 1 0
0.108432 23307.8 23307.8 1 1 0
0.108435 23308.3 23308.3 1 1 0
0.108437 23308.8 23308.8 1 1 0
0.108439 23309.3 23309.3 1 1 0
0.108441 23309.8 23309.8 1 1 0
0.108443 23310.3 23310.3 1 1 0
0.108446 23310.8 23310.8 1 1 0
0.108448 23311.3 23311.3 1 1 0
0.10845 23311.8 23311.8 1 1 0
0.108452 23312.3 23312.3 1 1 0
0.108455 23312.8 23312.8 1 1 0
0.108457 23313.3 23313.3 1 1 0
0.108459 23313.8 23313.8 1 1 0
0.108461 23314.3 23314.3 1 1 0
0.108464 23314.8 23314.8 1 1 0
0.108466 23315.3 23315.3 1 1 0
0.108468 23315.8 23315.8 1 1 0
0.10847 23316.3 23316.3 1 1 0
0.108472 23316.8 23316.8 1 1 0
0.108475 23317.3 23317.3 1 1 0
0.108477 23317.8 23317.8 1 1 0
0.108479 23318.3 23318.3 1 1 0
0.108481 23318.8 23318.8 1 1 0
0.108484 23319.3 23319.3 1 1 0
0.108486 23319.8 23319.8 1 1 0
0.108488 23320.3 23320.3 1 1 0
0.10849 23320.8 23320.8 1 1 0
0.108493 23321.3 23321.3 1 1 0
0.108495 23321.8 23321.8 1 1 0
0.108497 23322.3 23322.3 1 1 0
0.108499 23322.8 23322.8 1 1 0
0.108502 23323.3 23323.3 1 1 0
0.108504 23323.8 23323.8 1 1 0
0.108506 23324.3 23324.3 1 1 0
0.108508 23324.8 23324.8 1 1 0
0.10851 23325.3 23325.3 1 1 0
0.108513 23325.8 23325.8 1 1 0
0.108515 23326.3 23326.3 1 1 0
0.108517 23326.8 23326.8 1 1 0
0.108519 23327.3 23327.3 1 1 0
0.108522 23327.8 23327.8 1 1 0
0.108524 23328.3 23328.3 1 1 0
0.108526 23328.8 23328.8 1 1 0
0.108528 23329.3 23329.3 1 1 0
0.108531 23329.8 23329.8 1 1 0
0.108533 23330.3 23330.3 1 1 0
0.108535 23330.8 23330.8 1 1 0
0.108537 23331.3 23331.3 1 1 0
0.10854 23331.8 23331.8 1 1 0
0.108542 23332.3 23332.3 1 1 0
0.108544 23332.8 23332.8 1 1 0
0.108546 23333.3 23333.3 1 1 0
0.108549 23333.8 23333.8 1 1 0
0.108551 23334.3 23334.3 1 1 0
0.108553 23334.8 23334.8 1 1 0
0.108555 23335.3 23335.3 1 1 0
0.108558 23335.8 23335.8 1 1 0
0.10856 23336.3 23336.3 1 1 0
0.108562 23336.8 23336.8 1 1 0
0.108564 23337.3 23337.3 1 1 0
0.108566 23337.8 23337.8 1 1 0
0.108569 23338.3 23338.3 1 1 0
0.108571 23338.8 23338.8 1 1 0
0.108573 23339.3 23339.3 1 1 0
0.108575 23339.8 23339.8 1 1 0
0.108578 23340.3 23340.3 1 1 0
0.10858 23340.8 23340.8 1 1 0
0.108582 23341.3 23341.3 1 1 0
0.108584 23341.8 23341.8 1 1 0
0.108587 23342.3 23342.3 1 1 0
0.108589 23342.8 23342.8 1 1 0
0.108591 23343.3 23343.3 1 1 0
0.108593 23343.8 23343.8 1 1 0
0.108596 23344.3 23344.3 1 1 0
0.108598 23344.8 23344.8 1 1 0
0.1086 23345.3 23345.3 1 1 0
0.108602 23345.8 23345.8 1 1 0
0.108605 23346.3 23346.3 1 1 0
0.108607 23346.8 23346.8 1 1 0
0.108609 23347.3 23347.3 1 1 0
0.108611 23347.8 23347.8 1 1 0
0.108614 23348.3 23348.3 1 1 0
0.108616 23348.8 23348.8 1 1 0
0.108618 23349.3 23349.3 1 1 0
0.10862 23349.8 23349.8 1 1 0
0.108622 23350.3 23350.3 1 1 0
0.108625 23350.8 23350.8 1 1 0
0.108627 23351.3 23351.3 1 1 0
0.108629 23351.8 23351.8 1 1 0
0.108631 23352.3 23352.3 1 1 0
0.108634 23352.8 23352.8 1 1 0
0.108636 23353.3 23353.3 1 1 0
0.108638 23353.8 23353.8 1 1 0
0.10864 23354.3 23354.3 1 1 0
0.108643 23354.8 23354.8 1 1 0
0.108645 23355.3 23355.3 1 1 0
0.108647 23355.8 23355.8 1 1 0
0.108649 23356.3 23356.3 1 1 0
0.108652 23356.8 23356.8 1 1 0
0.108654 23357.3 23357.3 1 1 0
0.108656 23357.8 23357.8 1 1 0
0.108658 23358.3 23358.3 1 1 0
0.108661 23358.8 23358.8 1 1 0
0.108663 23359.3 23359.3 1 1 0
0.108665 23359.8 23359.8 1 1 0
0.108667 23360.3 23360.3 1 1 0
0.10867 23360.8 23360.8 1 1 0
0.108672 23361.3 23361.3 1 1 0
0.108674 23361.8 23361.8 1 1 0
0.108676 23362.3 23362.3 1 1 0
0.108679 23362.8 23362.8 1 1 0
0.108681 23363.3 23363.3 1 1 0
0.108683 23363.8 23363.8 1 1 0
0.108685 23364.3 23364.3 1 1 0
0.108688 23364.8 23364.8 1 1 0
0.10869 23365.3 23365.3 1 1 0
0.108692 23365.8 23365.8 1 1 0
0.108694 23366.3 23366.3 1 1 0
0.108697 23366.8 23366.8 1 1 0
0.108699 23367.3 23367.3 1 1 0
0.108701 23367.8 23367.8 1 1 0
0.108703 23368.3 23368.3 1 1 0
0.108706 23368.8 23368.8 1 1 0
0.108708 23369.3 23369.3 1 1 0
0.10871 23369.8 23369.8 1 1 0
0.108712 23370.3 23370.3 1 1 0
0.108715 23370.8 23370.8 1 1 0
0.108717 23371.3 23371.3 1 1 0
0.108719 23371.8 23371.8 1 1 0
0.108721 23372.3 23372.3 1 1 0
0.108724 23372.8 23372.8 1 1 0
0.108726 23373.3 23373.3 1 1 0
0.108728 23373.8 23373.8 1 1 0
0.10873 23374.3 23374.3 1 1 0
0.108733 23374.8 23374.8 1 1 0
0.108735 23375.3 23375.3 1 1 0
0.108737 23375.8 23375.8 1 1 0
0.108739 23376.3 23376.3 1 1 0
0.108742 23376.8 23376.8 1 1 0
0.108744 23377.3 23377.3 1 1 0
0.108746 23377.8 23377.8 1 1 0
0.108748 23378.3 23378.3 1 1 0
0.108751 23378.8 23378.8 1 1 0
0.108753 23379.3 23379.3 1 1 0
0.108755 23379.8 23379.8 1 1 0
0.108757 23380.3 23380.3 1 1 0
0.10876 23380.8 23380.8 1 1 0
0.108762 23381.3 23381.3 1 1 0
0.108764 23381.8 23381.8 1 1 0
0.108766 23382.3 23382.3 1 1 0
0.108769 23382.8 23382.8 1 1 0
0.108771 23383.3 23383.3 1 1 0
0.108773 23383.8 23383.8 1 1 0
0.108775 23384.3 23384.3 1 1 0
0.108778 23384.8 23384.8 1 1 0
0.10878 23385.3 23385.3 1 1 0
0.108782 23385.8 23385.8 1 1 0
0.108784 23386.3 23386.3 1 1 0
0.108787 23386.8 23386.8 1 1 0
0.108789 23387.3 23387.3 1 1 0
0.108791 23387.8 23387.8 1 1 0
0.108793 23388.3 23388.3 1 1 0
0.108796 23388.8 23388.8 1 1 0
0.108798 23389.3 23389.3 1 1 0
0.1088 23389.8 23389.8 1 1 0
0.108802 23390.3 23390.3 1 1 0
0.108805 23390.8 23390.8 1 1 0
0.108807 23391.3 23391.3 1 1 0
0.108809 23391.8 23391.8 1 1 0
0.108811 23392.3 23392.3 1 1 0
0.108814 23392.8 23392.8 1 1 0
0.108816 23393.3 23393.3 1 1 0
0.108818 23393.8 23393.8 1 1 0
0.10882 23394.3 23394.3 1 1 0
0.108823 23394.8 23394.8 1 1 0
0.108825 23395.3 23395.3 1 1 0
0.108827 23395.8 23395.8 1 1 0
0.108829 23396.3 23396.3 1 1 0
0.108832 23396.8 23396.8 1 1 0
0.108834 23397.3 23397.3 1 1 0
0.108836 23397.8 23397.8 1 1 0
0.108838 23398.3 23398.3 1 1 0
0.108841 23398.8 23398.8 1 1 0
0.108843 23399.3 23399.3 1 1 0
0.108845 23399.8 23399.8 1 1 0
0.108847 23400.3 23400.3 1 1 0
0.10885 23400.8 23400.8 1 1 0
0.108852 23401.3 23401.3 1 1 0
0.108854 23401.8 23401.8 1 1 0
0.108856 23402.3 23402.3 1 1 0
0.108859 23402.8 23402.8 1 1 0
0.108861 23403.3 23403.3 1 1 0
0.108863 23403.8 23403.8 1 1 0
0.108865 23404.3 23404.3 1 1 0
0.108868 23404.8 23404.8 1 1 0
0.10887 23405.3 23405.3 1 1 0
0.108872 23405.8 23405.8 1 1 0
0.108874 23406.3 23406.3 1 1 0
0.108877 23406.8 23406.8 1 1 0
0.108879 23407.3 23407.3 1 1 0
0.108881 23407.8 23407.8 1 1 0
0.108883 23408.3 23408.3 1 1 0
0.108886 23408.8 23408.8 1 1 0
0.108888 23409.3 23409.3 1 1 0
0.10889 23409.8 23409.8 1 1 0
0.108892 23410.3 23410.3 1 1 0
0.108895 23410.8 23410.8 1 1 0
0.108897 23411.3 23411.3 1 1 0
0.108899 23411.8 23411.8 1 1 0
0.108901 23412.3 23412.3 1 1 0
0.108904 23412.8 23412.8 1 1 0
0.108906 23413.3 23413.3 1 1 0
0.108908 23413.8 23413.8 1 1 0
0.108911 23414.3 23414.3 1 1 0
0.108913 23414.8 23414.8 1 1 0
0.108915 23415.3 23415.3 1 1 0
0.108917 23415.8 23415.8 1 1 0
0.10892 23416.3 23416.3 1 1 0
0.108922 23416.8 23416.8 1 1 0
0.108924 23417.3 23417.3 1 1 0
0.108926 23417.8 23417.8 1 1 0
0.108929 23418.3 23418.3 1 1 0
0.108931 23418.8 23418.8 1 1 0
0.108933 23419.3 23419.3 1 1 0
0.108935 23419.8 23419.8 1 1 0
0.108938 23420.3 23420.3 1 1 0
0.10894 23420.8 23420.8 1 1 0
0.108942 23421.3 23421.3 1 1 0
0.108944 23421.8 23421.8 1 1 0
0.108947 23422.3 23422.3 1 1 0
0.108949 23422.8 23422.8 1 1 0
0.108951 23423.3 23423.3 1 1 0
0.108953 23423.8 23423.8 1 1 0
0.108956 23424.3 23424.3 1 1 0
0.108958 23424.8 23424.8 1 1 0
0.10896 23425.3 23425.3 1 1 0
0.108962 23425.8 23425.8 1 1 0
0.108965 23426.3 23426.3 1 1 0
0.108967 23426.8 23426.8 1 1 0
0.108969 23427.3 23427.3 1 1 0
0.108972 23427.8 23427.8 1 1 0
0.108974 23428.3 23428.3 1 1 0
0.108976 23428.8 23428.8 1 1 0
0.108978 23429.3 23429.3 1 1 0
0.108981 23429.8 23429.8 1 1 0
0.108983 23430.3 23430.3 1 1 0
0.108985 23430.8 23430.8 1 1 0
0.108987 23431.3 23431.3 1 1 0
0.10899 23431.8 23431.8 1 1 0
0.108992 23432.3 23432.3 1 1 0
0.108994 23432.8 23432.8 1 1 0
0.108996 23433.3 23433.3 1 1 0
0.108999 23433.8 23433.8 1 1 0
0.109001 23434.3 23434.3 1 1 0
0.109003 23434.8 23434.8 1 1 0
0.109005 23435.3 23435.3 1 1 0
0.109008 23435.8 23435.8 1 1 0
0.10901 23436.3 23436.3 1 1 0
0.109012 23436.8 23436.8 1 1 0
0.109014 23437.3 23437.3 1 1 0
0.109017 23437.8 23437.8 1 1 0
0.109019 23438.3 23438.3 1 1 0
0.109021 23438.8 23438.8 1 1 0
0.109024 23439.3 23439.3 1 1 0
0.109026 23439.8 23439.8 1 1 0
0.109028 23440.3 23440.3 1 1 0
0.10903 23440.8 23440.8 1 1 0
0.109033 23441.3 23441.3 1 1 0
0.109035 23441.8 23441.8 1 1 0
0.109037 23442.3 23442.3 1 1 0
0.109039 23442.8 23442.8 1 1 0
0.109042 23443.3 23443.3 1 1 0
0.109044 23443.8 23443.8 1 1 0
0.109046 23444.3 23444.3 1 1 0
0.109048 23444.8 23444.8 1 1 0
0.109051 23445.3 23445.3 1 1 0
0.109053 23445.8 23445.8 1 1 0
0.109055 23446.3 23446.3 1 1 0
0.109057 23446.8 23446.8 1 1 0
0.10906 23447.3 23447.3 1 1 0
0.109062 23447.8 23447.8 1 1 0
0.109064 23448.3 23448.3 1 1 0
0.109067 23448.8 23448.8 1 1 0
0.109069 23449.3 23449.3 1 1 0
0.109071 23449.8 23449.8 1 1 0
0.109073 23450.3 23450.3 1 1 0
0.109076 23450.8 23450.8 1 1 0
0.109078 23451.3 23451.3 1 1 0
0.10908 23451.8 23451.8 1 1 0
0.109082 23452.3 23452.3 1 1 0
0.109085 23452.8 23452.8 1 1 0
0.109087 23453.3 23453.3 1 1 0
0.109089 23453.8 23453.8 1 1 0
0.109091 23454.3 23454.3 1 1 0
0.109094 23454.8 23454.8 1 1 0
0.109096 23455.3 23455.3 1 1 0
0.109098 23455.8 23455.8 1 1 0
0.109101 23456.3 23456.3 1 1 0
0.109103 23456.8 23456.8 1 1 0
0.109105 23457.3 23457.3 1 1 0
0.109107 23457.8 23457.8 1 1 0
0.10911 23458.3 23458.3 1 1 0
0.109112 23458.8 23458.8 1 1 0
0.109114 23459.3 23459.3 1 1 0
0.109116 23459.8 23459.8 1 1 0
0.109119 23460.3 23460.3 1 1 0
0.109121 23460.8 23460.8 1 1 0
0.109123 23461.3 23461.3 1 1 0
0.109125 23461.8 23461.8 1 1 0
0.109128 23462.3 23462.3 1 1 0
0.10913 23462.8 23462.8 1 1 0
0.109132 23463.3 23463.3 1 1 0
0.109135 23463.8 23463.8 1 1 0
0.109137 23464.3 23464.3 1 1 0
0.109139 23464.8 23464.8 1 1 0
0.109141 23465.3 23465.3 1 1 0
0.109144 23465.8 23465.8 1 1 0
0.109146 23466.3 23466.3 1 1 0
0.109148 23466.8 23466.8 1 1 0
0.10915 23467.3 23467.3 1 1 0
0.109153 23467.8 23467.8 1 1 0
0.109155 23468.3 23468.3 1 1 0
0.109157 23468.8 23468.8 1 1 0
0.10916 23469.3 23469.3 1 1 0
0.109162 23469.8 23469.8 1 1 0
0.109164 23470.3 23470.3 1 1 0
0.109166 23470.8 23470.8 1 1 0
0.109169 23471.3 23471.3 1 1 0
0.109171 23471.8 23471.8 1 1 0
0.109173 23472.3 23472.3 1 1 0
0.109175 23472.8 23472.8 1 1 0
0.109178 23473.3 23473.3 1 1 0
0.10918 23473.8 23473.8 1 1 0
0.109182 23474.3 23474.3 1 1 0
0.109185 23474.8 23474.8 1 1 0
0.109187 23475.3 23475.3 1 1 0
0.109189 23475.8 23475.8 1 1 0
0.109191 23476.3 23476.3 1 1 0
0.109194 23476.8 23476.8 1 1 0
0.109196 23477.3 23477.3 1 1 0
0.109198 23477.8 23477.8 1 1 0
0.1092 23478.3 23478.3 1 1 0
0.109203 23478.8 23478.8 1 1 0
0.109205 23479.3 23479.3 1 1 0
0.109207 23479.8 23479.8 1 1 0
0.10921 23480.3 23480.3 1 1 0
0.109212 23480.8 23480.8 1 1 0
0.109214 23481.3 23481.3 1 1 0
0.109216 23481.8 23481.8 1 1 0
0.109219 23482.3 23482.3 1 1 0
0.109221 23482.8 23482.8 1 1 0
0.109223 23483.3 23483.3 1 1 0
0.109225 23483.8 23483.8 1 1 0
