1.11605 803.173 803.173 1 1 0
1.11609 802.72 802.72 1 1 0
1.11612 802.267 802.267 1 1 0
1.11616 801.814 801.814 1 1 0
1.11619 801.36 801.36 1 1 0
1.11623 800.907 800.907 1 1 0
1.11626 800.454 800.454 1 1 0
1.1163 800 800 1 1 0
1.11633 799.547 799.547 1 1 0
1.11637 799.093 799.093 1 1 0
1.1164 798.64 798.64 1 1 0
1.11643 798.186 798.186 1 1 0
1.11646 797.732 797.732 1 1 0
1.1165 797.278 797.278 1 1 0
1.11653 796.825 796.825 1 1 0
1.11656 796.371 796.371 1 1 0
1.11659 795.917 795.917 1 1 0
1.11662 795.463 795.463 1 1 0
1.11665 795.009 795.009 1 1 0
1.11668 794.554 794.554 1 1 0
1.11671 794.1 794.1 1 1 0
1.11674 793.646 793.646 1 1 0
1.11676 793.192 793.192 1 1 0
1.11679 792.737 792.737 1 1 0
1.11682 792.283 792.283 1 1 0
1.11685 791.828 791.828 1 1 0
1.11687 791.374 791.374 1 1 0
1.1169 790.919 790.919 1 1 0
1.11692 790.464 790.464 1 1 0
1.11695 790.01 790.01 1 1 0
1.11698 789.555 789.555 1 1 0
1.117 789.1 789.1 1 1 0
1.11702 788.645 788.645 1 1 0
1.11705 788.19 788.19 1 1 0
1.11707 787.735 787.735 1 1 0
1.11709 787.28 787.28 1 1 0
1.11712 786.825 786.825 1 1 0
1.11714 786.369 786.369 1 1 0
1.11716 785.914 785.914 1 1 0
1.11718 785.459 785.459 1 1 0
1.1172 785.003 785.003 1 1 0
1.11722 784.548 784.548 1 1 0
1.11724 784.092 784.092 1 1 0
1.11726 783.637 783.637 1 1 0
1.11728 783.181 783.181 1 1 0
1.1173 782.725 782.725 1 1 0
1.11732 782.27 782.27 1 1 0
1.11734 781.814 781.814 1 1 0
1.11735 781.358 781.358 1 1 0
1.11737 780.902 780.902 1 1 0
1.11739 780.446 780.446 1 1 0
1.1174 779.99 779.99 1 1 0
1.11742 779.534 779.534 1 1 0
1.11743 779.078 779.078 1 1 0
1.11745 778.621 778.621 1 1 0
1.11746 778.165 778.165 1 1 0
1.11748 777.709 777.709 1 1 0
1.11749 777.252 777.252 1 1 0
1.1175 776.796 776.796 1 1 0
1.11752 776.339 776.339 1 1 0
1.11753 775.883 775.883 1 1 0
1.11754 775.426 775.426 1 1 0
1.11755 774.969 774.969 1 1 0
1.11757 774.513 774.513 1 1 0
1.11758 774.056 774.056 1 1 0
1.11759 773.599 773.599 1 1 0
1.1176 773.142 773.142 1 1 0
1.11761 772.685 772.685 1 1 0
1.11761 772.228 772.228 1 1 0
1.11762 771.771 771.771 1 1 0
1.11763 771.314 771.314 1 1 0
1.11764 770.857 770.857 1 1 0
1.11765 770.399 770.399 1 1 0
1.11765 769.942 769.942 1 1 0
1.11766 769.485 769.485 1 1 0
1.11767 769.027 769.027 1 1 0
1.11767 768.57 768.57 1 1 0
1.11768 768.112 768.112 1 1 0
1.11768 767.655 767.655 1 1 0
1.11769 767.197 767.197 1 1 0
1.11769 766.739 766.739 1 1 0
1.1177 766.282 766.282 1 1 0
1.1177 765.824 765.824 1 1 0
1.1177 765.366 765.366 1 1 0
1.1177 764.908 764.908 1 1 0
1.11771 764.45 764.45 1 1 0
1.11771 763.992 763.992 1 1 0
1.11771 763.534 763.534 1 1 0
1.11771 763.076 763.076 1 1 0
1.11771 762.618 762.618 1 1 0
1.11771 762.578 762.578 1 1 0
1.11771 762.12 762.12 2 1 0
1.11771 761.661 761.661 2 1 0
1.11771 761.203 761.203 2 1 0
1.11771 760.745 760.745 2 1 0
1.1177 760.286 760.286 2 1 0
1.1177 759.828 759.828 2 1 0
1.1177 759.369 759.369 2 1 0
1.1177 758.91 758.91 2 1 0
1.11769 758.452 758.452 2 1 0
1.11769 757.993 757.993 2 1 0
1.11768 757.534 757.534 2 1 0
1.11768 757.075 757.075 2 1 0
1.11767 756.616 756.616 2 1 0
1.11767 756.157 756.157 2 1 0
1.11766 755.698 755.698 2 1 0
1.11765 755.239 755.239 2 1 0
1.11765 754.78 754.78 2 1 0
1.11764 754.321 754.321 2 1 0
1.11763 753.862 753.862 2 1 0
1.11762 753.403 753.403 2 1 0
1.11761 752.943 752.943 2 1 0
1.11761 752.484 752.484 2 1 0
1.1176 752.024 752.024 2 1 0
1.11759 751.565 751.565 2 1 0
1.11758 751.105 751.105 2 1 0
1.11756 750.646 750.646 2 1 0
1.11755 750.186 750.186 2 1 0
1.11754 749.726 749.726 2 1 0
1.11753 749.267 749.267 2 1 0
1.11752 748.807 748.807 2 1 0
1.1175 748.347 748.347 2 1 0
1.11749 747.887 747.887 2 1 0
1.11748 747.427 747.427 2 1 0
1.11746 746.967 746.967 2 1 0
1.11745 746.507 746.507 2 1 0
1.11743 746.047 746.047 2 1 0
1.11742 745.587 745.587 2 1 0
1.1174 745.126 745.126 2 1 0
1.11738 744.666 744.666 2 1 0
1.11737 744.206 744.206 2 1 0
1.11735 743.745 743.745 2 1 0
1.11733 743.285 743.285 2 1 0
1.11731 742.824 742.824 2 1 0
1.11729 742.364 742.364 2 1 0
1.11727 741.903 741.903 2 1 0
1.11725 741.443 741.443 2 1 0
1.11723 740.982 740.982 2 1 0
1.11721 740.521 740.521 2 1 0
1.11719 740.06 740.06 2 1 0
1.11717 739.599 739.599 2 1 0
1.11715 739.138 739.138 2 1 0
1.11713 738.678 738.678 2 1 0
1.1171 738.216 738.216 2 1 0
1.11708 737.755 737.755 2 1 0
1.11706 737.294 737.294 2 1 0
1.11703 736.833 736.833 2 1 0
1.11701 736.372 736.372 2 1 0
1.11698 735.911 735.911 2 1 0
1.11696 735.449 735.449 2 1 0
1.11693 734.988 734.988 2 1 0
1.11691 734.527 734.527 2 1 0
1.11688 734.065 734.065 2 1 0
1.11685 733.604 733.604 2 1 0
1.11682 733.142 733.142 2 1 0
1.1168 732.68 732.68 2 1 0
1.11677 732.219 732.219 2 1 0
1.11674 731.757 731.757 2 1 0
1.11671 731.295 731.295 2 1 0
1.11668 730.833 730.833 2 1 0
1.11665 730.371 730.371 2 1 0
1.11662 729.91 729.91 2 1 0
1.11659 729.448 729.448 2 1 0
1.11656 728.986 728.986 2 1 0
1.11652 728.523 728.523 2 1 0
1.11649 728.061 728.061 2 1 0
1.11646 727.599 727.599 2 1 0
1.11642 727.137 727.137 2 1 0
1.11639 726.675 726.675 2 1 0
1.11636 726.212 726.212 2 1 0
1.11632 725.75 725.75 2 1 0
1.11629 725.288 725.288 2 1 0
1.11625 724.825 724.825 2 1 0
1.11621 724.363 724.363 2 1 0
1.11618 723.9 723.9 2 1 0
1.11614 723.437 723.437 2 1 0
1.1161 722.975 722.975 2 1 0
1.11606 722.512 722.512 2 1 0
1.11603 722.049 722.049 2 1 0
1.11599 721.586 721.586 2 1 0
1.11595 721.123 721.123 2 1 0
1.11591 720.661 720.661 2 1 0
1.11587 720.198 720.198 2 1 0
1.11583 719.735 719.735 2 1 0
1.11579 719.272 719.272 2 1 0
1.11574 718.808 718.808 2 1 0
1.1157 718.345 718.345 2 1 0
1.11566 717.882 717.882 2 1 0
1.11562 717.419 717.419 2 1 0
1.11557 716.956 716.956 2 1 0
1.11553 716.492 716.492 2 1 0
1.11548 716.029 716.029 2 1 0
1.11544 715.565 715.565 2 1 0
1.11539 715.102 715.102 2 1 0
1.11535 714.638 714.638 2 1 0
1.1153 714.175 714.175 2 1 0
1.11526 713.711 713.711 2 1 0
1.11521 713.247 713.247 2 1 0
1.11516 712.784 712.784 2 1 0
1.11511 712.32 712.32 2 1 0
1.11506 711.856 711.856 2 1 0
1.11502 711.392 711.392 2 1 0
1.11497 710.928 710.928 2 1 0
1.11492 710.464 710.464 2 1 0
1.11487 710 710 2 1 0
1.11482 709.536 709.536 2 1 0
1.11476 709.072 709.072 2 1 0
1.11471 708.608 708.608 2 1 0
1.11466 708.144 708.144 2 1 0
1.11461 707.68 707.68 2 1 0
1.11455 707.215 707.215 2 1 0
1.1145 706.751 706.751 2 1 0
1.11445 706.286 706.286 2 1 0
1.11439 705.822 705.822 2 1 0
1.11434 705.358 705.358 2 1 0
1.11428 704.893 704.893 2 1 0
1.11423 704.428 704.428 2 1 0
1.11417 703.964 703.964 2 1 0
1.11411 703.499 703.499 2 1 0
1.11405 703.034 703.034 2 1 0
1.114 702.57 702.57 2 1 0
1.11394 702.105 702.105 2 1 0
1.11388 701.64 701.64 2 1 0
1.11382 701.175 701.175 2 1 0
1.11376 700.71 700.71 2 1 0
1.1137 700.245 700.245 2 1 0
1.11364 699.78 699.78 2 1 0
1.11358 699.315 699.315 2 1 0
1.11352 698.85 698.85 2 1 0
1.11345 698.385 698.385 2 1 0
1.11339 697.92 697.92 2 1 0
1.11333 697.454 697.454 2 1 0
1.11327 696.989 696.989 2 1 0
1.1132 696.524 696.524 2 1 0
1.11314 696.058 696.058 2 1 0
1.11307 695.593 695.593 2 1 0
1.11301 695.127 695.127 2 1 0
1.11294 694.662 694.662 2 1 0
1.11287 694.196 694.196 2 1 0
1.11281 693.731 693.731 2 1 0
1.11274 693.265 693.265 2 1 0
1.11267 692.799 692.799 2 1 0
1.1126 692.333 692.333 2 1 0
1.11254 691.868 691.868 2 1 0
1.11247 691.402 691.402 2 1 0
1.1124 690.936 690.936 2 1 0
1.11233 690.47 690.47 2 1 0
1.11226 690.004 690.004 2 1 0
1.11218 689.538 689.538 2 1 0
1.11211 689.072 689.072 2 1 0
1.11204 688.606 688.606 2 1 0
1.11197 688.14 688.14 2 1 0
1.11189 687.673 687.673 2 1 0
1.11182 687.207 687.207 2 1 0
1.11175 686.741 686.741 2 1 0
1.11167 686.275 686.275 2 1 0
1.1116 685.808 685.808 2 1 0
1.11152 685.342 685.342 2 1 0
1.11145 684.875 684.875 2 1 0
1.11137 684.409 684.409 2 1 0
1.11129 683.942 683.942 2 1 0
1.11121 683.476 683.476 2 1 0
1.11114 683.009 683.009 2 1 0
1.11106 682.542 682.542 2 1 0
1.11098 682.076 682.076 2 1 0
1.1109 681.609 681.609 2 1 0
1.11082 681.142 681.142 2 1 0
1.11074 680.675 680.675 2 1 0
1.11066 680.208 680.208 2 1 0
1.11058 679.741 679.741 2 1 0
1.11049 679.274 679.274 2 1 0
1.11041 678.807 678.807 2 1 0
1.11033 678.34 678.34 2 1 0
1.11025 677.873 677.873 2 1 0
1.11016 677.406 677.406 2 1 0
1.11008 676.939 676.939 2 1 0
1.10999 676.472 676.472 2 1 0
1.10991 676.004 676.004 2 1 0
1.10982 675.537 675.537 2 1 0
1.10974 675.07 675.07 2 1 0
1.10965 674.602 674.602 2 1 0
1.10956 674.135 674.135 2 1 0
1.10947 673.667 673.667 2 1 0
1.10939 673.2 673.2 2 1 0
1.1093 672.732 672.732 2 1 0
1.10921 672.265 672.265 2 1 0
1.10912 671.797 671.797 2 1 0
1.10903 671.329 671.329 2 1 0
1.10894 670.862 670.862 2 1 0
1.10884 670.394 670.394 2 1 0
1.10875 669.926 669.926 2 1 0
1.10866 669.458 669.458 2 1 0
1.10857 668.99 668.99 2 1 0
1.10847 668.522 668.522 2 1 0
1.10838 668.054 668.054 2 1 0
1.10829 667.586 667.586 2 1 0
1.10819 667.118 667.118 2 1 0
1.1081 666.65 666.65 2 1 0
1.108 666.182 666.182 2 1 0
1.1079 665.714 665.714 2 1 0
1.10781 665.246 665.246 2 1 0
1.10771 664.777 664.777 2 1 0
1.10761 664.309 664.309 2 1 0
1.10751 663.841 663.841 2 1 0
1.10741 663.372 663.372 2 1 0
1.10731 662.904 662.904 2 1 0
1.10721 662.436 662.436 2 1 0
1.10711 661.967 661.967 2 1 0
1.10701 661.498 661.498 2 1 0
1.10691 661.03 661.03 2 1 0
1.10681 660.561 660.561 2 1 0
1.10671 660.093 660.093 2 1 0
1.1066 659.624 659.624 2 1 0
1.1065 659.155 659.155 2 1 0
1.1064 658.686 658.686 2 1 0
1.10629 658.218 658.218 2 1 0
1.10619 657.749 657.749 2 1 0
1.10608 657.28 657.28 2 1 0
1.10598 656.811 656.811 2 1 0
1.10587 656.342 656.342 2 1 0
1.10576 655.873 655.873 2 1 0
1.10565 655.404 655.404 2 1 0
1.10555 654.935 654.935 2 1 0
1.10544 654.466 654.466 2 1 0
1.10533 653.996 653.996 2 1 0
1.10522 653.527 653.527 2 1 0
1.10511 653.058 653.058 2 1 0
1.105 652.589 652.589 2 1 0
1.10489 652.119 652.119 2 1 0
1.10478 651.65 651.65 2 1 0
1.10466 651.181 651.181 2 1 0
1.10455 650.711 650.711 2 1 0
1.10444 650.242 650.242 2 1 0
1.10432 649.772 649.772 2 1 0
1.10421 649.303 649.303 2 1 0
1.10409 648.833 648.833 2 1 0
1.10398 648.363 648.363 2 1 0
1.10386 647.894 647.894 2 1 0
1.10375 647.424 647.424 2 1 0
1.10363 646.954 646.954 2 1 0
1.10351 646.484 646.484 2 1 0
1.10339 646.015 646.015 2 1 0
1.10327 645.545 645.545 2 1 0
1.10316 645.075 645.075 2 1 0
1.10304 644.605 644.605 2 1 0
1.10292 644.135 644.135 2 1 0
1.1028 643.665 643.665 2 1 0
1.10267 643.195 643.195 2 1 0
1.10255 642.725 642.725 2 1 0
1.10243 642.255 642.255 2 1 0
1.10231 641.785 641.785 2 1 0
1.10218 641.314 641.314 2 1 0
1.10206 640.844 640.844 2 1 0
1.10194 640.374 640.374 2 1 0
1.10181 639.904 639.904 2 1 0
1.10169 639.433 639.433 2 1 0
1.10156 638.963 638.963 2 1 0
1.10143 638.492 638.492 2 1 0
1.10131 638.022 638.022 2 1 0
1.10118 637.551 637.551 2 1 0
1.10105 637.081 637.081 2 1 0
1.10092 636.61 636.61 2 1 0
1.10079 636.14 636.14 2 1 0
1.10066 635.669 635.669 2 1 0
1.10053 635.199 635.199 2 1 0
1.1004 634.728 634.728 2 1 0
1.10027 634.257 634.257 2 1 0
1.10014 633.786 633.786 2 1 0
1.10001 633.316 633.316 2 1 0
1.09987 632.845 632.845 2 1 0
1.09974 632.374 632.374 2 1 0
1.0996 631.903 631.903 2 1 0
1.09947 631.432 631.432 2 1 0
1.09933 630.961 630.961 2 1 0
1.0992 630.49 630.49 2 1 0
1.09906 630.019 630.019 2 1 0
1.09893 629.548 629.548 2 1 0
1.09879 629.077 629.077 2 1 0
1.09865 628.606 628.606 2 1 0
1.09851 628.134 628.134 2 1 0
1.09837 627.663 627.663 2 1 0
1.09823 627.192 627.192 2 1 0
1.09809 626.721 626.721 2 1 0
1.09795 626.249 626.249 2 1 0
1.09781 625.778 625.778 2 1 0
1.09767 625.307 625.307 2 1 0
1.09753 624.835 624.835 2 1 0
1.09738 624.364 624.364 2 1 0
1.09724 623.892 623.892 2 1 0
1.0971 623.421 623.421 2 1 0
1.09695 622.949 622.949 2 1 0
1.09681 622.477 622.477 2 1 0
1.09666 622.006 622.006 2 1 0
1.09652 621.534 621.534 2 1 0
1.09637 621.062 621.062 2 1 0
1.09622 620.591 620.591 2 1 0
1.09607 620.119 620.119 2 1 0
1.09593 619.647 619.647 2 1 0
1.09578 619.175 619.175 2 1 0
1.09563 618.704 618.704 2 1 0
1.09548 618.232 618.232 2 1 0
1.09533 617.76 617.76 2 1 0
1.09518 617.288 617.288 2 1 0
1.09502 616.816 616.816 2 1 0
1.09487 616.344 616.344 2 1 0
1.09472 615.872 615.872 2 1 0
1.09456 615.4 615.4 2 1 0
1.09441 614.927 614.927 2 1 0
1.09426 614.455 614.455 2 1 0
1.0941 613.983 613.983 2 1 0
1.09395 613.511 613.511 2 1 0
1.09379 613.039 613.039 2 1 0
1.09363 612.566 612.566 2 1 0
1.09347 612.094 612.094 2 1 0
1.09332 611.622 611.622 2 1 0
1.09316 611.149 611.149 2 1 0
1.093 610.677 610.677 2 1 0
1.09284 610.205 610.205 2 1 0
1.09268 609.732 609.732 2 1 0
1.09252 609.26 609.26 2 1 0
1.09236 608.787 608.787 2 1 0
1.0922 608.314 608.314 2 1 0
1.09203 607.842 607.842 2 1 0
1.09187 607.369 607.369 2 1 0
1.09171 606.897 606.897 2 1 0
1.09154 606.424 606.424 2 1 0
1.09138 605.951 605.951 2 1 0
1.09121 605.478 605.478 2 1 0
1.09105 605.006 605.006 2 1 0
1.09088 604.533 604.533 2 1 0
1.09071 604.06 604.06 2 1 0
1.09054 603.587 603.587 2 1 0
1.09038 603.114 603.114 2 1 0
1.09021 602.641 602.641 2 1 0
1.09004 602.168 602.168 2 1 0
1.08987 601.695 601.695 2 1 0
1.0897 601.222 601.222 2 1 0
1.08953 600.749 600.749 2 1 0
1.08935 600.276 600.276 2 1 0
1.08918 599.803 599.803 2 1 0
1.08901 599.33 599.33 2 1 0
1.08883 598.857 598.857 2 1 0
1.08866 598.384 598.384 2 1 0
1.08849 597.91 597.91 2 1 0
1.08831 597.437 597.437 2 1 0
1.08813 596.964 596.964 2 1 0
1.08796 596.491 596.491 2 1 0
1.08778 596.017 596.017 2 1 0
1.0876 595.544 595.544 2 1 0
1.08743 595.071 595.071 2 1 0
1.08725 594.597 594.597 2 1 0
1.08707 594.124 594.124 2 1 0
1.08689 593.65 593.65 2 1 0
1.08671 593.177 593.177 2 1 0
1.08653 592.703 592.703 2 1 0
1.08634 592.23 592.23 2 1 0
1.08616 591.756 591.756 2 1 0
1.08598 591.282 591.282 2 1 0
1.0858 590.809 590.809 2 1 0
1.08561 590.335 590.335 2 1 0
1.08543 589.861 589.861 2 1 0
1.08524 589.388 589.388 2 1 0
1.08505 588.914 588.914 2 1 0
1.08487 588.44 588.44 2 1 0
1.08468 587.966 587.966 2 1 0
1.08449 587.492 587.492 2 1 0
1.08431 587.019 587.019 2 1 0
1.08412 586.545 586.545 2 1 0
1.08393 586.071 586.071 2 1 0
1.08374 585.597 585.597 2 1 0
1.08355 585.123 585.123 2 1 0
1.08335 584.649 584.649 2 1 0
1.08316 584.175 584.175 2 1 0
1.08297 583.701 583.701 2 1 0
1.08278 583.227 583.227 2 1 0
1.08258 582.753 582.753 2 1 0
1.08239 582.279 582.279 2 1 0
1.08219 581.804 581.804 2 1 0
1.082 581.33 581.33 2 1 0
1.0818 580.856 580.856 2 1 0
1.08161 580.382 580.382 2 1 0
1.08141 579.908 579.908 2 1 0
1.08121 579.433 579.433 2 1 0
1.08101 578.959 578.959 2 1 0
1.08081 578.485 578.485 2 1 0
1.08061 578.01 578.01 2 1 0
1.08041 577.536 577.536 2 1 0
1.08021 577.061 577.061 2 1 0
1.08001 576.587 576.587 2 1 0
1.07981 576.113 576.113 2 1 0
1.0796 575.638 575.638 2 1 0
1.0794 575.164 575.164 2 1 0
1.0792 574.689 574.689 2 1 0
1.07899 574.215 574.215 2 1 0
1.07879 573.74 573.74 2 1 0
1.07858 573.265 573.265 2 1 0
1.07837 572.791 572.791 2 1 0
1.07817 572.316 572.316 2 1 0
1.07796 571.841 571.841 2 1 0
1.07775 571.367 571.367 2 1 0
1.07754 570.892 570.892 2 1 0
1.07733 570.417 570.417 2 1 0
1.07712 569.943 569.943 2 1 0
1.07691 569.468 569.468 2 1 0
1.0767 568.993 568.993 2 1 0
1.07649 568.518 568.518 2 1 0
1.07627 568.043 568.043 2 1 0
1.07606 567.568 567.568 2 1 0
1.07584 567.093 567.093 2 1 0
1.07563 566.618 566.618 2 1 0
1.07541 566.144 566.144 2 1 0
1.0752 565.669 565.669 2 1 0
1.07498 565.194 565.194 2 1 0
1.07476 564.719 564.719 2 1 0
1.07455 564.244 564.244 2 1 0
1.07433 563.768 563.768 2 1 0
1.07411 563.293 563.293 2 1 0
1.07389 562.818 562.818 2 1 0
1.07367 562.343 562.343 2 1 0
1.07345 561.868 561.868 2 1 0
1.07323 561.393 561.393 2 1 0
1.073 560.918 560.918 2 1 0
1.07278 560.442 560.442 2 1 0
1.07256 559.967 559.967 2 1 0
1.07233 559.492 559.492 2 1 0
1.07211 559.017 559.017 2 1 0
1.07188 558.541 558.541 2 1 0
1.07166 558.066 558.066 2 1 0
1.07143 557.591 557.591 2 1 0
1.0712 557.115 557.115 2 1 0
1.07097 556.64 556.64 2 1 0
1.07075 556.165 556.165 2 1 0
1.07052 555.689 555.689 2 1 0
1.07029 555.214 555.214 2 1 0
1.07005 554.738 554.738 2 1 0
1.06982 554.263 554.263 2 1 0
1.06959 553.787 553.787 2 1 0
1.06936 553.312 553.312 2 1 0
1.06913 552.836 552.836 2 1 0
1.06889 552.361 552.361 2 1 0
1.06866 551.885 551.885 2 1 0
1.06842 551.409 551.409 2 1 0
1.06819 550.934 550.934 2 1 0
1.06795 550.458 550.458 2 1 0
1.06771 549.983 549.983 2 1 0
1.06747 549.507 549.507 2 1 0
1.06724 549.031 549.031 2 1 0
1.067 548.555 548.555 2 1 0
1.06676 548.08 548.08 2 1 0
1.06652 547.604 547.604 2 1 0
1.06628 547.128 547.128 2 1 0
1.06603 546.652 546.652 2 1 0
1.06579 546.177 546.177 2 1 0
1.06555 545.701 545.701 2 1 0
1.0653 545.225 545.225 2 1 0
1.06506 544.749 544.749 2 1 0
1.06481 544.273 544.273 2 1 0
1.06457 543.797 543.797 2 1 0
1.06432 543.321 543.321 2 1 0
1.06408 542.845 542.845 2 1 0
1.06383 542.369 542.369 2 1 0
1.06358 541.893 541.893 2 1 0
1.06333 541.418 541.418 2 1 0
1.06308 540.942 540.942 2 1 0
1.06283 540.465 540.465 2 1 0
1.06258 539.989 539.989 2 1 0
1.06233 539.513 539.513 2 1 0
1.06207 539.037 539.037 2 1 0
1.06182 538.561 538.561 2 1 0
1.06157 538.085 538.085 2 1 0
1.06131 537.609 537.609 2 1 0
1.06106 537.133 537.133 2 1 0
1.0608 536.657 536.657 2 1 0
1.06055 536.181 536.181 2 1 0
1.06029 535.704 535.704 2 1 0
1.06003 535.228 535.228 2 1 0
1.05977 534.752 534.752 2 1 0
1.05951 534.276 534.276 2 1 0
1.05925 533.799 533.799 2 1 0
1.05899 533.323 533.323 2 1 0
1.05873 532.847 532.847 2 1 0
1.05847 532.371 532.371 2 1 0
1.05821 531.894 531.894 2 1 0
1.05794 531.418 531.418 2 1 0
1.05768 530.942 530.942 2 1 0
1.05742 530.465 530.465 2 1 0
1.05715 529.989 529.989 2 1 0
1.05688 529.513 529.513 2 1 0
1.05662 529.036 529.036 2 1 0
1.05635 528.56 528.56 2 1 0
1.05608 528.083 528.083 2 1 0
1.05581 527.607 527.607 2 1 0
1.05554 527.13 527.13 2 1 0
1.05527 526.654 526.654 2 1 0
1.055 526.178 526.178 2 1 0
1.05473 525.701 525.701 2 1 0
1.05446 525.225 525.225 2 1 0
1.05419 524.748 524.748 2 1 0
1.05391 524.271 524.271 2 1 0
1.05364 523.795 523.795 2 1 0
1.05336 523.318 523.318 2 1 0
1.05309 522.842 522.842 2 1 0
1.05281 522.365 522.365 2 1 0
1.05253 521.889 521.889 2 1 0
1.05226 521.412 521.412 2 1 0
1.05198 520.935 520.935 2 1 0
1.0517 520.459 520.459 2 1 0
1.05142 519.982 519.982 2 1 0
1.05114 519.505 519.505 2 1 0
1.05086 519.029 519.029 2 1 0
1.05057 518.552 518.552 2 1 0
1.05029 518.075 518.075 2 1 0
1.05001 517.599 517.599 2 1 0
1.04972 517.122 517.122 2 1 0
1.04944 516.645 516.645 2 1 0
1.04915 516.168 516.168 2 1 0
1.04887 515.692 515.692 2 1 0
1.04858 515.215 515.215 2 1 0
1.04829 514.738 514.738 2 1 0
1.04801 514.261 514.261 2 1 0
1.04772 513.785 513.785 2 1 0
1.04743 513.308 513.308 2 1 0
1.04714 512.831 512.831 2 1 0
1.04684 512.354 512.354 2 1 0
1.04655 511.877 511.877 2 1 0
1.04626 511.4 511.4 2 1 0
1.04597 510.924 510.924 2 1 0
1.04567 510.447 510.447 2 1 0
1.04538 509.97 509.97 2 1 0
1.04508 509.493 509.493 2 1 0
1.04479 509.016 509.016 2 1 0
1.04449 508.539 508.539 2 1 0
1.04419 508.062 508.062 2 1 0
1.04389 507.585 507.585 2 1 0
1.04359 507.108 507.108 2 1 0
1.04329 506.631 506.631 2 1 0
1.04299 506.154 506.154 2 1 0
1.04269 505.677 505.677 2 1 0
1.04239 505.2 505.2 2 1 0
1.04209 504.723 504.723 2 1 0
1.04178 504.246 504.246 2 1 0
1.04148 503.769 503.769 2 1 0
1.04118 503.292 503.292 2 1 0
1.04087 502.815 502.815 2 1 0
1.04056 502.338 502.338 2 1 0
1.04026 501.861 501.861 2 1 0
1.03995 501.384 501.384 2 1 0
1.03964 500.907 500.907 2 1 0
1.03933 500.43 500.43 2 1 0
1.03902 499.953 499.953 2 1 0
1.03871 499.476 499.476 2 1 0
1.0384 498.999 498.999 2 1 0
1.03809 498.522 498.522 2 1 0
1.03777 498.045 498.045 2 1 0
1.03746 497.568 497.568 2 1 0
1.03714 497.091 497.091 2 1 0
1.03683 496.614 496.614 2 1 0
1.03651 496.136 496.136 2 1 0
1.0362 495.659 495.659 2 1 0
1.03588 495.182 495.182 2 1 0
1.03556 494.705 494.705 2 1 0
1.03524 494.228 494.228 2 1 0
1.03492 493.751 493.751 2 1 0
1.0346 493.274 493.274 2 1 0
1.03428 492.796 492.796 2 1 0
1.03396 492.319 492.319 2 1 0
1.03364 491.842 491.842 2 1 0
1.03331 491.365 491.365 2 1 0
1.03299 490.888 490.888 2 1 0
1.03266 490.411 490.411 2 1 0
1.03234 489.933 489.933 2 1 0
1.03201 489.456 489.456 2 1 0
1.03168 488.979 488.979 2 1 0
1.03136 488.502 488.502 2 1 0
1.03103 488.024 488.024 2 1 0
1.0307 487.547 487.547 2 1 0
1.03037 487.07 487.07 2 1 0
1.03004 486.593 486.593 2 1 0
1.0297 486.116 486.116 2 1 0
1.02937 485.638 485.638 2 1 0
1.02904 485.161 485.161 2 1 0
1.02871 484.684 484.684 2 1 0
1.02837 484.207 484.207 2 1 0
1.02803 483.729 483.729 2 1 0
1.0277 483.252 483.252 2 1 0
1.02736 482.775 482.775 2 1 0
1.02702 482.298 482.298 2 1 0
1.02668 481.82 481.82 2 1 0
1.02635 481.343 481.343 2 1 0
1.02601 480.866 480.866 2 1 0
1.02566 480.389 480.389 2 1 0
1.02532 479.911 479.911 2 1 0
1.02498 479.434 479.434 2 1 0
1.02464 478.957 478.957 2 1 0
1.02429 478.479 478.479 2 1 0
1.02395 478.002 478.002 2 1 0
1.0236 477.525 477.525 2 1 0
1.02326 477.048 477.048 2 1 0
1.02291 476.57 476.57 2 1 0
1.02256 476.093 476.093 2 1 0
1.02221 475.616 475.616 2 1 0
1.02186 475.138 475.138 2 1 0
1.02151 474.661 474.661 2 1 0
1.02116 474.184 474.184 2 1 0
1.02081 473.706 473.706 2 1 0
1.02046 473.229 473.229 2 1 0
1.0201 472.752 472.752 2 1 0
1.01975 472.275 472.275 2 1 0
1.01939 471.797 471.797 2 1 0
1.01904 471.32 471.32 2 1 0
1.01868 470.843 470.843 2 1 0
1.01833 470.365 470.365 2 1 0
1.01797 469.888 469.888 2 1 0
1.01761 469.411 469.411 2 1 0
1.01725 468.933 468.933 2 1 0
1.01689 468.456 468.456 2 1 0
1.01653 467.979 467.979 2 1 0
1.01616 467.501 467.501 2 1 0
1.0158 467.024 467.024 2 1 0
1.01544 466.547 466.547 2 1 0
1.01507 466.07 466.07 2 1 0
1.01471 465.592 465.592 2 1 0
1.01434 465.115 465.115 2 1 0
1.01398 464.638 464.638 2 1 0
1.01361 464.16 464.16 2 1 0
1.01324 463.683 463.683 2 1 0
1.01287 463.206 463.206 2 1 0
1.0125 462.728 462.728 2 1 0
1.01213 462.251 462.251 2 1 0
1.01176 461.774 461.774 2 1 0
1.01138 461.297 461.297 2 1 0
1.01101 460.819 460.819 2 1 0
1.01064 460.342 460.342 2 1 0
1.01026 459.865 459.865 2 1 0
1.00989 459.387 459.387 2 1 0
1.00951 458.91 458.91 2 1 0
1.00913 458.433 458.433 2 1 0
1.00875 457.956 457.956 2 1 0
1.00838 457.478 457.478 2 1 0
1.008 457.001 457.001 2 1 0
1.00762 456.524 456.524 2 1 0
1.00723 456.047 456.047 2 1 0
1.00685 455.569 455.569 2 1 0
1.00647 455.092 455.092 2 1 0
1.00608 454.615 454.615 2 1 0
1.0057 454.138 454.138 2 1 0
1.00531 453.66 453.66 2 1 0
1.00493 453.183 453.183 2 1 0
1.00454 452.706 452.706 2 1 0
1.00415 452.229 452.229 2 1 0
1.00376 451.751 451.751 2 1 0
1.00337 451.274 451.274 2 1 0
1.00298 450.797 450.797 2 1 0
1.00259 450.32 450.32 2 1 0
1.0022 449.842 449.842 2 1 0
1.00181 449.365 449.365 2 1 0
1.00141 448.888 448.888 2 1 0
1.00102 448.411 448.411 2 1 0
1.00062 447.934 447.934 2 1 0
1.00023 447.456 447.456 2 1 0
0.99983 446.979 446.979 2 1 0
0.999432 446.502 446.502 2 1 0
0.999033 446.025 446.025 2 1 0
0.998634 445.548 445.548 2 1 0
0.998233 445.071 445.071 2 1 0
0.997832 444.593 444.593 2 1 0
0.99743 444.116 444.116 2 1 0
0.997027 443.639 443.639 2 1 0
0.996623 443.162 443.162 2 1 0
0.996218 442.685 442.685 2 1 0
0.995813 442.208 442.208 2 1 0
0.995406 441.731 441.731 2 1 0
0.994999 441.254 441.254 2 1 0
0.994591 440.776 440.776 2 1 0
0.994182 440.299 440.299 2 1 0
0.993772 439.822 439.822 2 1 0
0.993362 439.345 439.345 2 1 0
0.99295 438.868 438.868 2 1 0
0.992538 438.391 438.391 2 1 0
0.992125 437.914 437.914 2 1 0
0.991711 437.437 437.437 2 1 0
0.991296 436.96 436.96 2 1 0
0.99088 436.483 436.483 2 1 0
0.990463 436.006 436.006 2 1 0
0.990046 435.529 435.529 2 1 0
0.989628 435.052 435.052 2 1 0
0.989208 434.575 434.575 2 1 0
0.988788 434.098 434.098 2 1 0
0.988368 433.621 433.621 2 1 0
0.987946 433.144 433.144 2 1 0
0.987523 432.667 432.667 2 1 0
0.9871 432.19 432.19 2 1 0
0.986675 431.713 431.713 2 1 0
0.98625 431.236 431.236 2 1 0
0.985824 430.759 430.759 2 1 0
0.985397 430.282 430.282 2 1 0
0.984969 429.805 429.805 2 1 0
0.98454 429.328 429.328 2 1 0
0.984111 428.851 428.851 2 1 0
0.98368 428.374 428.374 2 1 0
0.983249 427.898 427.898 2 1 0
0.982817 427.421 427.421 2 1 0
0.982384 426.944 426.944 2 1 0
0.98195 426.467 426.467 2 1 0
0.981515 425.99 425.99 2 1 0
0.981079 425.513 425.513 2 1 0
0.980642 425.037 425.037 2 1 0
0.980205 424.56 424.56 2 1 0
0.979766 424.083 424.083 2 1 0
0.979327 423.606 423.606 2 1 0
0.978887 423.129 423.129 2 1 0
0.978446 422.653 422.653 2 1 0
0.978004 422.176 422.176 2 1 0
0.977561 421.699 421.699 2 1 0
0.977118 421.222 421.222 2 1 0
0.976673 420.746 420.746 2 1 0
0.976227 420.269 420.269 2 1 0
0.975781 419.792 419.792 2 1 0
0.975334 419.316 419.316 2 1 0
0.974886 418.839 418.839 2 1 0
0.974437 418.362 418.362 2 1 0
0.973987 417.886 417.886 2 1 0
0.973536 417.409 417.409 2 1 0
0.973084 416.932 416.932 2 1 0
0.972631 416.456 416.456 2 1 0
0.972178 415.979 415.979 2 1 0
0.971723 415.503 415.503 2 1 0
0.971268 415.026 415.026 2 1 0
0.970812 414.549 414.549 2 1 0
0.970355 414.073 414.073 2 1 0
0.969896 413.596 413.596 2 1 0
0.969438 413.12 413.12 2 1 0
0.968978 412.643 412.643 2 1 0
0.968517 412.167 412.167 2 1 0
0.968055 411.69 411.69 2 1 0
0.967592 411.214 411.214 2 1 0
0.967129 410.737 410.737 2 1 0
0.966664 410.261 410.261 2 1 0
0.966199 409.785 409.785 2 1 0
0.965733 409.308 409.308 2 1 0
0.965266 408.832 408.832 2 1 0
0.964798 408.355 408.355 2 1 0
0.964328 407.879 407.879 2 1 0
0.963859 407.403 407.403 2 1 0
0.963388 406.926 406.926 2 1 0
0.962916 406.45 406.45 2 1 0
0.962443 405.974 405.974 2 1 0
0.961969 405.497 405.497 2 1 0
0.961495 405.021 405.021 2 1 0
0.961019 404.545 404.545 2 1 0
0.960543 404.069 404.069 2 1 0
0.960066 403.592 403.592 2 1 0
0.959587 403.116 403.116 2 1 0
0.959108 402.64 402.64 2 1 0
0.958628 402.164 402.164 2 1 0
0.958147 401.688 401.688 2 1 0
0.957665 401.211 401.211 2 1 0
0.957182 400.735 400.735 2 1 0
0.956698 400.259 400.259 2 1 0
0.956213 399.783 399.783 2 1 0
0.955727 399.307 399.307 2 1 0
0.955241 398.831 398.831 2 1 0
0.954753 398.355 398.355 2 1 0
0.954264 397.879 397.879 2 1 0
0.953775 397.403 397.403 2 1 0
0.953284 396.927 396.927 2 1 0
0.952793 396.451 396.451 2 1 0
0.952301 395.975 395.975 2 1 0
0.951807 395.499 395.499 2 1 0
0.951313 395.023 395.023 2 1 0
0.950818 394.547 394.547 2 1 0
0.950322 394.071 394.071 2 1 0
0.949824 393.595 393.595 2 1 0
0.949326 393.119 393.119 2 1 0
0.948827 392.643 392.643 2 1 0
0.948327 392.167 392.167 2 1 0
0.947826 391.692 391.692 2 1 0
0.947325 391.216 391.216 2 1 0
0.946822 390.74 390.74 2 1 0
0.946318 390.264 390.264 2 1 0
0.945813 389.789 389.789 2 1 0
0.945307 389.313 389.313 2 1 0
0.944801 388.837 388.837 2 1 0
0.944293 388.361 388.361 2 1 0
0.943784 387.886 387.886 2 1 0
0.943275 387.41 387.41 2 1 0
0.942764 386.934 386.934 2 1 0
0.942253 386.459 386.459 2 1 0
0.94174 385.983 385.983 2 1 0
0.941226 385.508 385.508 2 1 0
0.940712 385.032 385.032 2 1 0
0.940197 384.557 384.557 2 1 0
0.93968 384.081 384.081 2 1 0
0.939163 383.605 383.605 2 1 0
0.938644 383.13 383.13 2 1 0
0.938125 382.655 382.655 2 1 0
0.937605 382.179 382.179 2 1 0
0.937083 381.704 381.704 2 1 0
0.936561 381.228 381.228 2 1 0
0.936038 380.753 380.753 2 1 0
0.935514 380.277 380.277 2 1 0
0.934988 379.802 379.802 2 1 0
0.934462 379.327 379.327 2 1 0
0.933935 378.851 378.851 2 1 0
0.933407 378.376 378.376 2 1 0
0.932877 377.901 377.901 2 1 0
0.932347 377.426 377.426 2 1 0
0.931816 376.95 376.95 2 1 0
0.931284 376.475 376.475 2 1 0
0.930751 376 376 2 1 0
0.930216 375.525 375.525 2 1 0
0.929681 375.05 375.05 2 1 0
0.929145 374.575 374.575 2 1 0
0.928608 374.1 374.1 2 1 0
0.92807 373.624 373.624 2 1 0
0.92753 373.149 373.149 2 1 0
0.92699 372.674 372.674 2 1 0
0.926449 372.199 372.199 2 1 0
0.925907 371.724 371.724 2 1 0
0.925364 371.249 371.249 2 1 0
0.924819 370.774 370.774 2 1 0
0.924274 370.299 370.299 2 1 0
0.923728 369.825 369.825 2 1 0
0.923181 369.35 369.35 2 1 0
0.922632 368.875 368.875 2 1 0
0.922083 368.4 368.4 2 1 0
0.921533 367.925 367.925 2 1 0
0.920982 367.45 367.45 2 1 0
0.920429 366.976 366.976 2 1 0
0.919876 366.501 366.501 2 1 0
0.919321 366.026 366.026 2 1 0
0.918766 365.551 365.551 2 1 0
0.91821 365.077 365.077 2 1 0
0.917652 364.602 364.602 2 1 0
0.917094 364.127 364.127 2 1 0
0.916534 363.653 363.653 2 1 0
0.915974 363.178 363.178 2 1 0
0.915412 362.704 362.704 2 1 0
0.914849 362.229 362.229 2 1 0
0.914286 361.755 361.755 2 1 0
0.913721 361.28 361.28 2 1 0
0.913155 360.806 360.806 2 1 0
0.912589 360.331 360.331 2 1 0
0.912021 359.857 359.857 2 1 0
0.911452 359.382 359.382 2 1 0
0.910882 358.908 358.908 2 1 0
0.910311 358.434 358.434 2 1 0
0.909739 357.959 357.959 2 1 0
0.909166 357.485 357.485 2 1 0
0.908592 357.011 357.011 2 1 0
0.908017 356.536 356.536 2 1 0
0.907441 356.062 356.062 2 1 0
0.906864 355.588 355.588 2 1 0
0.906286 355.114 355.114 2 1 0
0.905706 354.64 354.64 2 1 0
0.905126 354.165 354.165 2 1 0
0.904545 353.691 353.691 2 1 0
0.903962 353.217 353.217 2 1 0
0.903379 352.743 352.743 2 1 0
0.902794 352.269 352.269 2 1 0
0.902209 351.795 351.795 2 1 0
0.901622 351.321 351.321 2 1 0
0.901034 350.847 350.847 2 1 0
0.900445 350.373 350.373 2 1 0
0.899855 349.899 349.899 2 1 0
0.899264 349.425 349.425 2 1 0
0.898672 348.952 348.952 2 1 0
0.898079 348.478 348.478 2 1 0
0.897485 348.004 348.004 2 1 0
0.89689 347.53 347.53 2 1 0
0.896294 347.056 347.056 2 1 0
0.895696 346.583 346.583 2 1 0
0.895098 346.109 346.109 2 1 0
0.894498 345.635 345.635 2 1 0
0.893898 345.162 345.162 2 1 0
0.893296 344.688 344.688 2 1 0
0.892693 344.214 344.214 2 1 0
0.892089 343.741 343.741 2 1 0
0.891484 343.267 343.267 2 1 0
0.890878 342.794 342.794 2 1 0
0.890271 342.32 342.32 2 1 0
0.889663 341.847 341.847 2 1 0
0.889054 341.373 341.373 2 1 0
0.888443 340.9 340.9 2 1 0
0.887832 340.427 340.427 2 1 0
0.887219 339.953 339.953 2 1 0
0.886606 339.48 339.48 2 1 0
0.885991 339.007 339.007 2 1 0
0.885375 338.533 338.533 2 1 0
0.884758 338.06 338.06 2 1 0
0.88414 337.587 337.587 2 1 0
0.883521 337.114 337.114 2 1 0
0.882901 336.64 336.64 2 1 0
0.882279 336.167 336.167 2 1 0
0.881657 335.694 335.694 2 1 0
0.881033 335.221 335.221 2 1 0
0.880409 334.748 334.748 2 1 0
0.879783 334.275 334.275 2 1 0
0.879156 333.802 333.802 2 1 0
0.878528 333.329 333.329 2 1 0
0.877899 332.856 332.856 2 1 0
0.877268 332.383 332.383 2 1 0
0.876637 331.91 331.91 2 1 0
0.876005 331.437 331.437 2 1 0
0.875371 330.964 330.964 2 1 0
0.874736 330.492 330.492 2 1 0
0.8741 330.019 330.019 2 1 0
0.873463 329.546 329.546 2 1 0
0.872825 329.073 329.073 2 1 0
0.872186 328.601 328.601 2 1 0
0.871546 328.128 328.128 2 1 0
0.870904 327.655 327.655 2 1 0
0.870261 327.183 327.183 2 1 0
0.869618 326.71 326.71 2 1 0
0.868973 326.238 326.238 2 1 0
0.868327 325.765 325.765 2 1 0
0.86768 325.292 325.292 2 1 0
0.867031 324.82 324.82 2 1 0
0.866382 324.348 324.348 2 1 0
0.865731 323.875 323.875 2 1 0
0.86508 323.403 323.403 2 1 0
0.864427 322.93 322.93 2 1 0
0.863773 322.458 322.458 2 1 0
0.863117 321.986 321.986 2 1 0
0.862461 321.513 321.513 2 1 0
0.861804 321.041 321.041 2 1 0
0.861145 320.569 320.569 2 1 0
0.860485 320.097 320.097 2 1 0
0.859824 319.625 319.625 2 1 0
0.859162 319.153 319.153 2 1 0
0.858499 318.68 318.68 2 1 0
0.857834 318.208 318.208 2 1 0
0.857169 317.736 317.736 2 1 0
0.856502 317.264 317.264 2 1 0
0.855834 316.792 316.792 2 1 0
0.855165 316.32 316.32 2 1 0
0.854495 315.849 315.849 2 1 0
0.853824 315.377 315.377 2 1 0
0.853151 314.905 314.905 2 1 0
0.852477 314.433 314.433 2 1 0
0.851802 313.961 313.961 2 1 0
0.851126 313.489 313.489 2 1 0
0.850449 313.018 313.018 2 1 0
0.84977 312.546 312.546 2 1 0
0.849091 312.074 312.074 2 1 0
0.84841 311.603 311.603 2 1 0
0.847728 311.131 311.131 2 1 0
0.847045 310.659 310.659 2 1 0
0.846361 310.188 310.188 2 1 0
0.845675 309.716 309.716 2 1 0
0.844988 309.245 309.245 2 1 0
0.8443 308.773 308.773 2 1 0
0.843611 308.302 308.302 2 1 0
0.842921 307.831 307.831 2 1 0
0.842229 307.359 307.359 2 1 0
0.841537 306.888 306.888 2 1 0
0.840843 306.416 306.416 2 1 0
0.840148 305.945 305.945 2 1 0
0.839451 305.474 305.474 2 1 0
0.838754 305.003 305.003 2 1 0
0.838055 304.532 304.532 2 1 0
0.837355 304.06 304.06 2 1 0
0.836654 303.589 303.589 2 1 0
0.835952 303.118 303.118 2 1 0
0.835248 302.647 302.647 2 1 0
0.834543 302.176 302.176 2 1 0
0.833837 301.705 301.705 2 1 0
0.83313 301.234 301.234 2 1 0
0.832422 300.763 300.763 2 1 0
0.831712 300.292 300.292 2 1 0
0.831001 299.821 299.821 2 1 0
0.830289 299.351 299.351 2 1 0
0.829576 298.88 298.88 2 1 0
0.828861 298.409 298.409 2 1 0
0.828146 297.938 297.938 2 1 0
0.827429 297.467 297.467 2 1 0
0.82671 296.997 296.997 2 1 0
0.825991 296.526 296.526 2 1 0
0.82527 296.055 296.055 2 1 0
0.824548 295.585 295.585 2 1 0
0.823825 295.114 295.114 2 1 0
0.823101 294.644 294.644 2 1 0
0.822375 294.173 294.173 2 1 0
0.821648 293.703 293.703 2 1 0
0.82092 293.232 293.232 2 1 0
0.820191 292.762 292.762 2 1 0
0.81946 292.292 292.292 2 1 0
0.818728 291.821 291.821 2 1 0
0.817995 291.351 291.351 2 1 0
0.817261 290.881 290.881 2 1 0
0.816525 290.41 290.41 2 1 0
0.815788 289.94 289.94 2 1 0
0.81505 289.47 289.47 2 1 0
0.814311 289 289 2 1 0
0.81357 288.53 288.53 2 1 0
0.812828 288.06 288.06 2 1 0
0.812085 287.59 287.59 2 1 0
0.811341 287.12 287.12 2 1 0
0.810595 286.65 286.65 2 1 0
0.809848 286.18 286.18 2 1 0
0.8091 285.71 285.71 2 1 0
0.80835 285.24 285.24 2 1 0
0.8076 284.77 284.77 2 1 0
0.806848 284.3 284.3 2 1 0
0.806094 283.83 283.83 2 1 0
0.80534 283.361 283.361 2 1 0
0.804584 282.891 282.891 2 1 0
0.803826 282.421 282.421 2 1 0
0.803068 281.951 281.951 2 1 0
0.802308 281.482 281.482 2 1 0
0.801547 281.012 281.012 2 1 0
0.800785 280.543 280.543 2 1 0
0.800021 280.073 280.073 2 1 0
0.799256 279.604 279.604 2 1 0
0.79849 279.134 279.134 2 1 0
0.797723 278.665 278.665 2 1 0
0.796954 278.195 278.195 2 1 0
0.796184 277.726 277.726 2 1 0
0.795412 277.257 277.257 2 1 0
0.79464 276.787 276.787 2 1 0
0.793866 276.318 276.318 2 1 0
0.79309 275.849 275.849 2 1 0
0.792314 275.38 275.38 2 1 0
0.791536 274.91 274.91 2 1 0
0.790756 274.441 274.441 2 1 0
0.789976 273.972 273.972 2 1 0
0.789194 273.503 273.503 2 1 0
0.788411 273.034 273.034 2 1 0
0.787626 272.565 272.565 2 1 0
0.78684 272.096 272.096 2 1 0
0.786053 271.627 271.627 2 1 0
0.785265 271.158 271.158 2 1 0
0.784475 270.689 270.689 2 1 0
0.783684 270.22 270.22 2 1 0
0.782891 269.752 269.752 2 1 0
0.782097 269.283 269.283 2 1 0
0.781302 268.814 268.814 2 1 0
0.780505 268.345 268.345 2 1 0
0.779708 267.877 267.877 2 1 0
0.778908 267.408 267.408 2 1 0
0.778108 266.939 266.939 2 1 0
0.777306 266.471 266.471 2 1 0
0.776503 266.002 266.002 2 1 0
0.775698 265.534 265.534 2 1 0
0.774892 265.065 265.065 2 1 0
0.774085 264.597 264.597 2 1 0
0.773276 264.128 264.128 2 1 0
0.772466 263.66 263.66 2 1 0
0.771655 263.192 263.192 2 1 0
0.770842 262.723 262.723 2 1 0
0.770028 262.255 262.255 2 1 0
0.769213 261.787 261.787 2 1 0
0.768396 261.319 261.319 2 1 0
0.767578 260.85 260.85 2 1 0
0.766759 260.382 260.382 2 1 0
0.765938 259.914 259.914 2 1 0
0.765115 259.446 259.446 2 1 0
0.764292 258.978 258.978 2 1 0
0.763467 258.51 258.51 2 1 0
0.76264 258.042 258.042 2 1 0
0.761813 257.574 257.574 2 1 0
0.760983 257.106 257.106 2 1 0
0.760153 256.638 256.638 2 1 0
0.759321 256.17 256.17 2 1 0
0.758488 255.703 255.703 2 1 0
0.757653 255.235 255.235 2 1 0
0.756817 254.767 254.767 2 1 0
0.755979 254.299 254.299 2 1 0
0.75514 253.832 253.832 2 1 0
0.7543 253.364 253.364 2 1 0
0.753458 252.896 252.896 2 1 0
0.752615 252.429 252.429 2 1 0
0.751771 251.961 251.961 2 1 0
0.750925 251.494 251.494 2 1 0
0.750077 251.026 251.026 2 1 0
0.749229 250.559 250.559 2 1 0
0.748379 250.091 250.091 2 1 0
0.747527 249.624 249.624 2 1 0
0.746674 249.157 249.157 2 1 0
0.74582 248.689 248.689 2 1 0
0.744964 248.222 248.222 2 1 0
0.744107 247.755 247.755 2 1 0
0.743248 247.287 247.287 2 1 0
0.742388 246.82 246.82 2 1 0
0.741526 246.353 246.353 2 1 0
0.740663 245.886 245.886 2 1 0
0.739799 245.419 245.419 2 1 0
0.738933 244.952 244.952 2 1 0
0.738066 244.485 244.485 2 1 0
0.737197 244.018 244.018 2 1 0
0.736327 243.551 243.551 2 1 0
0.735455 243.084 243.084 2 1 0
0.734582 242.617 242.617 2 1 0
0.733708 242.15 242.15 2 1 0
0.732832 241.683 241.683 2 1 0
0.731955 241.217 241.217 2 1 0
0.731076 240.75 240.75 2 1 0
0.730196 240.283 240.283 2 1 0
0.729314 239.816 239.816 2 1 0
0.728431 239.35 239.35 2 1 0
0.727546 238.883 238.883 2 1 0
0.72666 238.416 238.416 2 1 0
0.725772 237.95 237.95 2 1 0
0.724883 237.483 237.483 2 1 0
0.723993 237.017 237.017 2 1 0
0.723101 236.55 236.55 2 1 0
0.722207 236.084 236.084 2 1 0
0.721312 235.618 235.618 2 1 0
0.720416 235.151 235.151 2 1 0
0.719518 234.685 234.685 2 1 0
0.718618 234.219 234.219 2 1 0
0.717717 233.752 233.752 2 1 0
0.716815 233.286 233.286 2 1 0
0.715911 232.82 232.82 2 1 0
0.715006 232.354 232.354 2 1 0
0.714099 231.888 231.888 2 1 0
0.71319 231.422 231.422 2 1 0
0.712281 230.955 230.955 2 1 0
0.711369 230.489 230.489 2 1 0
0.710456 230.023 230.023 2 1 0
0.709542 229.557 229.557 2 1 0
0.708626 229.092 229.092 2 1 0
0.707709 228.626 228.626 2 1 0
0.70679 228.16 228.16 2 1 0
0.705869 227.694 227.694 2 1 0
0.704947 227.228 227.228 2 1 0
0.704024 226.762 226.762 2 1 0
0.703099 226.297 226.297 2 1 0
0.702172 225.831 225.831 2 1 0
0.701244 225.365 225.365 2 1 0
0.700315 224.9 224.9 2 1 0
0.699384 224.434 224.434 2 1 0
0.698451 223.968 223.968 2 1 0
0.697517 223.503 223.503 2 1 0
0.696581 223.037 223.037 2 1 0
0.695644 222.572 222.572 2 1 0
0.694705 222.106 222.106 2 1 0
0.693765 221.641 221.641 2 1 0
0.692823 221.176 221.176 2 1 0
0.691879 220.71 220.71 2 1 0
0.690934 220.245 220.245 2 1 0
0.689988 219.78 219.78 2 1 0
0.68904 219.314 219.314 2 1 0
0.68809 218.849 218.849 2 1 0
0.687139 218.384 218.384 2 1 0
0.686186 217.919 217.919 2 1 0
0.685232 217.454 217.454 2 1 0
0.684276 216.989 216.989 2 1 0
0.683318 216.524 216.524 2 1 0
0.682359 216.059 216.059 2 1 0
0.681398 215.594 215.594 2 1 0
0.680436 215.129 215.129 2 1 0
0.679472 214.664 214.664 2 1 0
0.678507 214.199 214.199 2 1 0
0.67754 213.734 213.734 2 1 0
0.676571 213.269 213.269 2 1 0
0.675601 212.804 212.804 2 1 0
0.67463 212.34 212.34 2 1 0
0.673656 211.875 211.875 2 1 0
0.672681 211.41 211.41 2 1 0
0.671705 210.946 210.946 2 1 0
0.670727 210.481 210.481 2 1 0
0.669747 210.016 210.016 2 1 0
0.668765 209.552 209.552 2 1 0
0.667783 209.087 209.087 2 1 0
0.666798 208.623 208.623 2 1 0
0.665812 208.158 208.158 2 1 0
0.664824 207.694 207.694 2 1 0
0.663834 207.229 207.229 2 1 0
0.662843 206.765 206.765 2 1 0
0.661851 206.301 206.301 2 1 0
0.660856 205.836 205.836 2 1 0
0.65986 205.372 205.372 2 1 0
0.658863 204.908 204.908 2 1 0
0.657864 204.444 204.444 2 1 0
0.656863 203.979 203.979 2 1 0
0.65586 203.515 203.515 2 1 0
0.654856 203.051 203.051 2 1 0
0.65385 202.587 202.587 2 1 0
0.652843 202.123 202.123 2 1 0
0.651834 201.659 201.659 2 1 0
0.650823 201.195 201.195 2 1 0
0.649811 200.731 200.731 2 1 0
0.648797 200.267 200.267 2 1 0
0.647781 199.803 199.803 2 1 0
0.646764 199.339 199.339 2 1 0
0.645745 198.875 198.875 2 1 0
0.644724 198.411 198.411 2 1 0
0.643702 197.948 197.948 2 1 0
0.642678 197.484 197.484 2 1 0
0.641652 197.02 197.02 2 1 0
0.640624 196.557 196.557 2 1 0
0.639595 196.093 196.093 2 1 0
0.638565 195.629 195.629 2 1 0
0.637532 195.166 195.166 2 1 0
0.636498 194.702 194.702 2 1 0
0.635462 194.239 194.239 2 1 0
0.634425 193.775 193.775 2 1 0
0.633385 193.312 193.312 2 1 0
0.632344 192.848 192.848 2 1 0
0.631302 192.385 192.385 2 1 0
0.630257 191.921 191.921 2 1 0
0.629211 191.458 191.458 2 1 0
0.628164 190.995 190.995 2 1 0
0.627114 190.531 190.531 2 1 0
0.626063 190.068 190.068 2 1 0
0.62501 189.605 189.605 2 1 0
0.623955 189.142 189.142 2 1 0
0.622899 188.678 188.678 2 1 0
0.621841 188.215 188.215 2 1 0
0.620781 187.752 187.752 2 1 0
0.61972 187.289 187.289 2 1 0
0.618656 186.826 186.826 2 1 0
0.617591 186.363 186.363 2 1 0
0.616525 185.9 185.9 2 1 0
0.615456 185.437 185.437 2 1 0
0.614386 184.974 184.974 2 1 0
0.613314 184.511 184.511 2 1 0
0.61224 184.048 184.048 2 1 0
0.611164 183.586 183.586 2 1 0
0.610087 183.123 183.123 2 1 0
0.609008 182.66 182.66 2 1 0
0.607927 182.197 182.197 2 1 0
0.606845 181.734 181.734 2 1 0
0.60576 181.272 181.272 2 1 0
0.604674 180.809 180.809 2 1 0
0.603586 180.346 180.346 2 1 0
0.602497 179.884 179.884 2 1 0
0.601405 179.421 179.421 2 1 0
0.600312 178.959 178.959 2 1 0
0.599217 178.496 178.496 2 1 0
0.59812 178.034 178.034 2 1 0
0.597022 177.571 177.571 2 1 0
0.595921 177.109 177.109 2 1 0
0.594819 176.646 176.646 2 1 0
0.593715 176.184 176.184 2 1 0
0.592609 175.722 175.722 2 1 0
0.591502 175.259 175.259 2 1 0
0.590392 174.797 174.797 2 1 0
0.589281 174.335 174.335 2 1 0
0.588168 173.873 173.873 2 1 0
0.587053 173.41 173.41 2 1 0
0.585936 172.948 172.948 2 1 0
0.584818 172.486 172.486 2 1 0
0.583697 172.024 172.024 2 1 0
0.582575 171.562 171.562 2 1 0
0.581451 171.1 171.1 2 1 0
0.580325 170.638 170.638 2 1 0
0.579198 170.176 170.176 2 1 0
0.578068 169.714 169.714 2 1 0
0.576937 169.252 169.252 2 1 0
0.575804 168.79 168.79 2 1 0
0.574668 168.328 168.328 2 1 0
0.573532 167.866 167.866 2 1 0
0.572393 167.404 167.404 2 1 0
0.571252 166.943 166.943 2 1 0
0.57011 166.481 166.481 2 1 0
0.568965 166.019 166.019 2 1 0
0.567819 165.557 165.557 2 1 0
0.566671 165.096 165.096 2 1 0
0.565521 164.634 164.634 2 1 0
0.564369 164.172 164.172 2 1 0
0.563215 163.711 163.711 2 1 0
0.562059 163.249 163.249 2 1 0
0.560902 162.788 162.788 2 1 0
0.559742 162.326 162.326 2 1 0
0.558581 161.865 161.865 2 1 0
0.557418 161.403 161.403 2 1 0
0.556253 160.942 160.942 2 1 0
0.555086 160.48 160.48 2 1 0
0.553917 160.019 160.019 2 1 0
0.552746 159.557 159.557 2 1 0
0.551573 159.096 159.096 2 1 0
0.550398 158.635 158.635 2 1 0
0.549222 158.173 158.173 2 1 0
0.548043 157.712 157.712 2 1 0
0.546863 157.251 157.251 2 1 0
0.54568 156.79 156.79 2 1 0
0.544496 156.329 156.329 2 1 0
0.543309 155.867 155.867 2 1 0
0.542121 155.406 155.406 2 1 0
0.540931 154.945 154.945 2 1 0
0.539739 154.484 154.484 2 1 0
0.538545 154.023 154.023 2 1 0
0.537349 153.562 153.562 2 1 0
0.536151 153.101 153.101 2 1 0
0.534951 152.64 152.64 2 1 0
0.533749 152.179 152.179 2 1 0
0.532545 151.718 151.718 2 1 0
0.531339 151.257 151.257 2 1 0
0.530131 150.796 150.796 2 1 0
0.528922 150.336 150.336 2 1 0
0.52771 149.875 149.875 2 1 0
0.526496 149.414 149.414 2 1 0
0.52528 148.953 148.953 2 1 0
0.524063 148.493 148.493 2 1 0
0.522843 148.032 148.032 2 1 0
0.521621 147.571 147.571 2 1 0
0.520397 147.11 147.11 2 1 0
0.519172 146.65 146.65 2 1 0
0.517944 146.189 146.189 2 1 0
0.516714 145.729 145.729 2 1 0
0.515482 145.268 145.268 2 1 0
0.514249 144.808 144.808 2 1 0
0.513013 144.347 144.347 2 1 0
0.511775 143.887 143.887 2 1 0
0.510535 143.426 143.426 2 1 0
0.509293 142.966 142.966 2 1 0
0.508049 142.505 142.505 2 1 0
0.506803 142.045 142.045 2 1 0
0.505555 141.584 141.584 2 1 0
0.504305 141.124 141.124 2 1 0
0.503053 140.664 140.664 2 1 0
0.501799 140.204 140.204 2 1 0
0.500543 139.743 139.743 2 1 0
0.499284 139.283 139.283 2 1 0
0.498024 138.823 138.823 2 1 0
0.496761 138.363 138.363 2 1 0
0.495497 137.902 137.902 2 1 0
0.49423 137.442 137.442 2 1 0
0.492962 136.982 136.982 2 1 0
0.491691 136.522 136.522 2 1 0
0.490418 136.062 136.062 2 1 0
0.489143 135.602 135.602 2 1 0
0.487866 135.142 135.142 2 1 0
0.486587 134.682 134.682 2 1 0
0.485306 134.222 134.222 2 1 0
0.484023 133.762 133.762 2 1 0
0.482737 133.302 133.302 2 1 0
0.48145 132.842 132.842 2 1 0
0.48016 132.382 132.382 2 1 0
0.478868 131.922 131.922 2 1 0
0.477574 131.463 131.463 2 1 0
0.476278 131.003 131.003 2 1 0
0.47498 130.543 130.543 2 1 0
0.47368 130.083 130.083 2 1 0
0.472378 129.623 129.623 2 1 0
0.471073 129.164 129.164 2 1 0
0.469766 128.704 128.704 2 1 0
0.468457 128.244 128.244 2 1 0
0.467146 127.785 127.785 2 1 0
0.465833 127.325 127.325 2 1 0
0.464518 126.865 126.865 2 1 0
0.4632 126.406 126.406 2 1 0
0.461881 125.946 125.946 2 1 0
0.460559 125.487 125.487 2 1 0
0.459235 125.027 125.027 2 1 0
0.457909 124.568 124.568 2 1 0
0.45658 124.108 124.108 2 1 0
0.45525 123.649 123.649 2 1 0
0.453917 123.189 123.189 2 1 0
0.452582 122.73 122.73 2 1 0
0.451245 122.27 122.27 2 1 0
0.449906 121.811 121.811 2 1 0
0.448564 121.352 121.352 2 1 0
0.44722 120.892 120.892 2 1 0
0.445874 120.433 120.433 2 1 0
0.444526 119.974 119.974 2 1 0
0.443176 119.515 119.515 2 1 0
0.441823 119.055 119.055 2 1 0
0.440468 118.596 118.596 2 1 0
0.439111 118.137 118.137 2 1 0
0.437752 117.678 117.678 2 1 0
0.43639 117.218 117.218 2 1 0
0.435027 116.759 116.759 2 1 0
0.43366 116.3 116.3 2 1 0
0.432292 115.841 115.841 2 1 0
0.430922 115.382 115.382 2 1 0
0.429549 114.923 114.923 2 1 0
0.428174 114.464 114.464 2 1 0
0.426796 114.005 114.005 2 1 0
0.425416 113.546 113.546 2 1 0
0.424035 113.087 113.087 2 1 0
0.42265 112.628 112.628 2 1 0
0.421264 112.169 112.169 2 1 0
0.419875 111.71 111.71 2 1 0
0.418484 111.251 111.251 2 1 0
0.41709 110.792 110.792 2 1 0
0.415695 110.333 110.333 2 1 0
0.414297 109.875 109.875 2 1 0
0.412896 109.416 109.416 2 1 0
0.411494 108.957 108.957 2 1 0
0.410089 108.498 108.498 2 1 0
0.408681 108.039 108.039 2 1 0
0.407272 107.581 107.581 2 1 0
0.40586 107.122 107.122 2 1 0
0.404446 106.663 106.663 2 1 0
0.403029 106.204 106.204 2 1 0
0.40161 105.746 105.746 2 1 0
0.400189 105.287 105.287 2 1 0
0.398765 104.829 104.829 2 1 0
0.397339 104.37 104.37 2 1 0
0.39591 103.911 103.911 2 1 0
0.39448 103.453 103.453 2 1 0
0.393046 102.994 102.994 2 1 0
0.391611 102.536 102.536 2 1 0
0.390173 102.077 102.077 2 1 0
0.388733 101.619 101.619 2 1 0
0.38729 101.16 101.16 2 1 0
0.385845 100.702 100.702 2 1 0
0.384397 100.243 100.243 2 1 0
0.382948 99.7847 99.7847 2 1 0
0.381495 99.3263 99.3263 2 1 0
0.380041 98.8679 98.8679 2 1 0
0.378583 98.4095 98.4095 2 1 0
0.377124 97.9511 97.9511 2 1 0
0.375662 97.4928 97.4928 2 1 0
0.374198 97.0344 97.0344 2 1 0
0.372731 96.5761 96.5761 2 1 0
0.371261 96.1178 96.1178 2 1 0
0.36979 95.6595 95.6595 2 1 0
0.368316 95.2013 95.2013 2 1 0
0.366839 94.743 94.743 2 1 0
0.36536 94.2848 94.2848 2 1 0
0.363878 93.8266 93.8266 2 1 0
0.362394 93.3684 93.3684 2 1 0
0.360908 92.9102 92.9102 2 1 0
0.359419 92.452 92.452 2 1 0
0.357928 91.9939 91.9939 2 1 0
0.356434 91.5357 91.5357 2 1 0
0.354937 91.0776 91.0776 2 1 0
0.353438 90.6195 90.6195 2 1 0
0.351937 90.1614 90.1614 2 1 0
0.350433 89.7033 89.7033 2 1 0
0.348927 89.2453 89.2453 2 1 0
0.347418 88.7872 88.7872 2 1 0
0.345906 88.3292 88.3292 2 1 0
0.344392 87.8712 87.8712 2 1 0
0.342876 87.4132 87.4132 2 1 0
0.341357 86.9552 86.9552 2 1 0
0.339835 86.4973 86.4973 2 1 0
0.338311 86.0393 86.0393 2 1 0
0.336785 85.5814 85.5814 2 1 0
0.335255 85.1235 85.1235 2 1 0
0.333724 84.6656 84.6656 2 1 0
0.332189 84.2077 84.2077 2 1 0
0.330653 83.7498 83.7498 2 1 0
0.329113 83.292 83.292 2 1 0
0.327571 82.8341 82.8341 2 1 0
0.326027 82.3763 82.3763 2 1 0
0.324479 81.9185 81.9185 2 1 0
0.32293 81.4607 81.4607 2 1 0
0.321377 81.0029 81.0029 2 1 0
0.319822 80.5451 80.5451 2 1 0
0.318265 80.0873 80.0873 2 1 0
0.316705 79.6296 79.6296 2 1 0
0.315142 79.1719 79.1719 2 1 0
0.313576 78.7141 78.7141 2 1 0
0.312008 78.2564 78.2564 2 1 0
0.310438 77.7988 77.7988 2 1 0
0.308864 77.3411 77.3411 2 1 0
0.307288 76.8834 76.8834 2 1 0
0.30571 76.4258 76.4258 2 1 0
0.304129 75.9681 75.9681 2 1 0
0.302545 75.5105 75.5105 2 1 0
0.300958 75.0529 75.0529 2 1 0
0.299369 74.5953 74.5953 2 1 0
0.297777 74.1377 74.1377 2 1 0
0.296183 73.6801 73.6801 2 1 0
0.294585 73.2226 73.2226 2 1 0
0.292985 72.765 72.765 2 1 0
0.291383 72.3075 72.3075 2 1 0
0.289778 71.85 71.85 2 1 0
0.28817 71.3925 71.3925 2 1 0
0.286559 70.935 70.935 2 1 0
0.284946 70.4775 70.4775 2 1 0
0.283329 70.02 70.02 2 1 0
0.281711 69.5626 69.5626 2 1 0
0.280089 69.1051 69.1051 2 1 0
0.278465 68.6477 68.6477 2 1 0
0.276838 68.1903 68.1903 2 1 0
0.275208 67.7329 67.7329 2 1 0
0.273575 67.2755 67.2755 2 1 0
0.27194 66.8181 66.8181 2 1 0
0.270302 66.3607 66.3607 2 1 0
0.268661 65.9033 65.9033 2 1 0
0.267018 65.446 65.446 2 1 0
0.265371 64.9886 64.9886 2 1 0
0.263722 64.5313 64.5313 2 1 0
0.26207 64.074 64.074 2 1 0
0.260416 63.6167 63.6167 2 1 0
0.258758 63.1594 63.1594 2 1 0
0.257098 62.7021 62.7021 2 1 0
0.255435 62.2448 62.2448 2 1 0
0.253769 61.7875 61.7875 2 1 0
0.2521 61.3303 61.3303 2 1 0
0.250428 60.873 60.873 2 1 0
0.248754 60.4158 60.4158 2 1 0
0.247077 59.9586 59.9586 2 1 0
0.245397 59.5014 59.5014 2 1 0
0.243714 59.0441 59.0441 2 1 0
